 9354 18575
-48.020	-17.216	4.647
-48.653	-15.359	2.811
-49.556	-13.530	1.010
-47.066	-16.678	0.484
-45.997	-18.412	-1.424
-44.577	-19.791	-3.051
-35.204	-19.347	17.245
-34.232	-22.760	15.205
-35.126	-19.545	15.723
-35.475	-19.647	13.968
-35.952	-19.589	12.114
-36.507	-7.676	10.542
-36.224	-11.224	9.864
-36.891	-10.653	8.267
-39.320	-13.553	6.109
-38.092	-16.447	2.659
-38.158	-18.980	-0.689
-38.359	-15.785	0.651
-38.678	-15.121	-1.382
-38.826	-14.226	-3.316
-38.898	-13.449	-5.039
-39.225	-11.413	-2.232
-39.352	-7.895	-0.592
-38.859	-4.714	1.132
-30.929	14.966	8.257
-32.151	11.617	6.775
-31.116	15.571	6.954
-31.506	16.103	5.496
-32.116	16.580	4.040
-32.923	17.035	2.703
-31.325	20.706	3.856
-30.130	24.001	2.728
-29.476	26.261	1.271
-54.872	-39.441	46.253
-55.543	-42.280	45.823
-56.519	-40.029	45.235
-57.413	-40.736	43.234
-57.807	-41.608	40.832
-57.407	-38.641	33.100
-58.080	-40.009	34.455
-56.675	-40.623	32.986
-56.523	-42.745	31.989
-56.980	-44.727	30.333
-58.081	-46.335	28.891
-55.836	-45.407	28.828
-54.885	-45.880	27.063
-54.315	-46.197	25.150
-56.789	-27.310	17.117
-58.250	-29.373	17.923
-55.389	-29.604	17.215
-53.595	-31.684	18.760
-51.268	-33.355	20.867
-42.389	-38.291	18.006
-43.354	-37.824	20.148
-43.901	-39.004	18.896
-45.710	-39.918	19.668
-47.701	-41.060	20.187
-49.701	-42.324	20.529
-49.956	-41.055	18.493
-52.803	-40.404	17.003
-56.065	-39.362	15.631
-59.236	-38.544	14.657
-56.763	-37.629	13.751
-57.540	-35.953	12.051
-58.188	-34.192	10.751
-49.961	-29.295	4.590
-52.563	-29.567	5.955
-53.412	-27.671	4.608
-57.223	-26.353	4.920
-61.221	-25.034	5.284
-64.504	-24.508	4.568
-62.384	-23.161	3.983
-63.333	-21.365	2.707
-42.273	-80.656	8.595
-44.136	-81.698	7.520
-45.405	-79.887	9.446
-47.786	-77.886	9.409
-48.773	-75.082	9.078
-42.392	-67.933	11.773
-43.405	-69.145	10.676
-43.267	-67.295	10.075
-44.370	-66.388	8.300
-44.580	-65.069	6.435
-45.126	-63.535	4.885
-46.308	-63.646	6.139
-48.722	-63.173	6.146
-51.521	-63.111	6.542
-40.010	-58.530	24.171
-39.054	-59.258	22.789
-39.533	-57.703	21.780
-39.536	-56.876	19.229
-40.224	-56.308	16.796
-46.202	-50.238	10.784
-44.946	-52.100	11.416
-46.399	-51.512	9.535
-47.564	-53.100	8.478
-49.726	-54.833	8.002
-52.165	-56.586	8.057
-51.574	-54.108	6.793
-53.631	-53.139	5.116
-55.403	-51.828	3.681
-57.302	-50.254	2.505
-54.907	-49.198	2.918
-54.166	-47.053	1.982
-52.990	-44.999	1.060
-55.338	-39.601	3.611
-52.738	-39.831	2.667
-54.738	-38.265	2.349
-53.932	-37.079	0.933
-53.081	-35.879	-0.307
-52.071	-34.863	-1.549
-55.289	-34.137	-0.558
-57.872	-32.422	-0.743
-60.543	-30.554	-0.930
-23.048	-62.083	55.926
-22.249	-63.699	54.773
-23.247	-62.436	53.833
-23.897	-62.777	52.120
-24.340	-63.329	50.312
-27.537	-62.988	43.898
-26.434	-63.169	44.052
-26.095	-62.985	41.197
-24.776	-62.473	38.343
-24.033	-62.733	35.628
-24.004	-63.801	33.025
-25.097	-63.847	32.982
-26.541	-65.263	30.641
-27.896	-67.232	28.482
-35.634	-60.790	40.061
-34.111	-60.816	39.694
-35.249	-63.090	41.722
-34.335	-65.632	43.426
-33.204	-68.308	44.558
-34.283	-80.195	36.687
-32.481	-79.157	38.579
-32.480	-80.911	35.280
-31.355	-80.192	32.988
-31.119	-78.324	30.192
-30.988	-76.318	27.601
-32.042	-79.411	26.658
-32.982	-80.099	23.365
-33.172	-80.729	20.031
-33.082	-81.460	17.321
-34.359	-82.897	19.770
-35.561	-85.167	19.122
-37.121	-86.345	17.996
-43.674	-78.524	19.643
-42.859	-81.057	17.964
-42.652	-79.987	16.393
-40.422	-80.716	13.702
-38.368	-80.612	11.242
-36.643	-81.111	8.853
-38.940	-79.553	10.279
-40.278	-79.633	9.243
-18.378	-61.616	15.843
-19.079	-63.649	13.132
-19.267	-63.603	15.126
-18.702	-65.287	14.023
-16.877	-66.178	13.179
-12.054	-72.222	18.714
-11.859	-70.459	16.969
-8.802	-71.452	17.201
-5.703	-71.365	15.433
-3.532	-73.269	13.327
-3.576	-77.152	11.788
-2.608	-76.933	13.975
-2.919	-80.398	14.466
-3.103	-83.537	14.272
-16.044	-80.330	34.825
-14.936	-79.998	32.771
-13.769	-82.020	34.689
-10.522	-83.130	34.742
-7.633	-83.958	34.061
-10.251	-92.864	25.034
-8.349	-91.368	26.884
-8.430	-92.859	22.882
-8.067	-91.569	20.220
-7.421	-90.583	18.055
-5.828	-90.560	16.869
-7.127	-93.088	14.946
-6.669	-95.531	12.161
-6.314	-98.170	9.608
-6.239	-100.013	7.388
-7.439	-99.962	8.668
-9.234	-101.577	7.726
-11.555	-102.084	6.470
-24.182	-97.191	12.197
-21.796	-98.695	9.811
-23.782	-97.170	9.002
-22.708	-96.297	6.244
-22.479	-95.840	3.666
-23.474	-94.857	1.900
-23.935	-93.214	3.790
-25.486	-90.456	3.887
-27.345	-87.901	3.809
-11.704	-21.540	45.421
-12.695	-20.259	43.910
-13.432	-22.651	43.840
-14.684	-23.854	42.184
-15.434	-25.186	40.590
-16.162	-36.475	41.268
-16.174	-33.834	40.122
-15.085	-35.092	40.366
-13.631	-33.731	40.201
-11.882	-32.493	40.783
-9.665	-31.471	41.746
-9.785	-33.605	41.943
-7.375	-34.707	42.743
-5.434	-36.070	42.454
-6.182	-50.439	49.427
-6.698	-48.719	48.725
-6.571	-50.514	47.144
-7.528	-50.537	45.112
-8.618	-50.247	43.281
-9.632	-55.061	34.883
-10.516	-52.709	36.088
-11.650	-52.616	34.580
-13.123	-49.960	34.570
-13.565	-47.337	34.671
-12.641	-44.653	34.786
-13.094	-46.914	33.198
-12.025	-46.742	32.041
-10.258	-46.811	31.312
-8.029	-47.006	31.188
-9.680	-49.552	30.368
-8.961	-52.419	28.455
-8.567	-54.247	26.081
-9.586	-65.304	22.397
-5.844	-64.551	21.362
-10.310	-64.061	21.153
-10.542	-62.900	19.916
-10.300	-61.848	18.535
-10.242	-60.945	17.028
-13.633	-60.449	18.204
-16.471	-60.417	17.288
-3.840	0.530	30.459
-2.945	1.276	29.222
-3.277	-2.222	30.066
-5.711	-45.281	20.503
-5.254	-45.521	18.922
-5.364	-46.894	17.920
-5.109	-48.438	15.146
-5.096	-50.174	12.307
-5.375	-52.477	9.208
-4.882	-52.983	11.070
-4.830	-55.758	10.396
-5.215	-58.234	10.396
-33.426	20.591	-17.325
-30.517	20.215	-15.160
-31.522	19.423	-17.941
-29.712	18.093	-18.321
-28.315	16.590	-18.606
-23.758	10.625	-21.473
-25.430	10.916	-21.277
-25.366	8.732	-19.313
-12.807	9.373	-17.227
-14.319	10.474	-17.023
-23.596	-8.729	-28.222
-24.529	-15.971	-24.402
-22.979	-17.213	-23.851
-20.371	-16.933	-25.835
-20.655	-17.371	-28.701
-23.717	-18.033	-31.399
-22.017	-19.774	-29.199
-23.859	-22.136	-29.004
-25.624	-24.344	-28.218
-59.571	-12.659	-6.410
-56.345	-14.509	-8.298
-57.181	-12.155	-8.647
-55.308	-11.738	-10.746
-53.691	-11.208	-13.021
-52.217	-2.754	-18.156
-51.701	-5.192	-18.268
-51.140	-4.178	-20.608
-51.649	-5.195	-22.219
-53.627	-6.129	-23.239
-56.450	-6.695	-23.216
-55.760	-4.182	-24.469
-57.557	-2.794	-26.158
-57.681	-2.866	-28.550
-46.667	6.037	-18.119
-48.048	8.951	-16.334
-47.084	11.646	-18.453
-48.096	14.871	-20.544
-48.673	15.156	-23.975
-38.536	10.158	-38.453
-41.465	11.054	-37.330
-40.442	7.067	-37.772
-42.987	4.588	-37.174
-45.588	2.625	-35.871
-47.710	0.102	-34.871
-45.580	0.001	-35.926
-45.540	-2.872	-35.998
-46.653	-5.153	-37.047
-47.996	-7.989	-37.974
-46.164	-5.359	-39.951
-44.850	-5.882	-42.375
-42.822	-6.927	-43.794
-31.227	-3.590	-42.272
-32.916	-5.444	-43.079
-32.070	-6.096	-40.576
-33.294	-8.309	-38.866
-34.927	-9.804	-37.021
-36.373	-10.713	-34.450
-33.757	-10.792	-35.497
-32.989	-11.819	-34.258
-32.256	-13.013	-32.921
-43.008	-77.915	0.314
-43.009	-79.296	-1.304
-42.470	-76.239	-1.010
-42.996	-74.402	-2.360
-44.096	-72.723	-3.813
-47.980	-64.376	-6.690
-46.497	-65.811	-6.108
-45.790	-64.320	-6.601
-43.404	-64.534	-6.406
-41.646	-65.741	-7.025
-40.766	-67.527	-8.353
-41.558	-63.944	-7.659
-42.095	-61.797	-8.592
-42.526	-59.393	-9.590
-59.153	-44.939	-10.899
-57.948	-47.689	-10.834
-57.416	-45.868	-12.484
-57.398	-47.265	-14.391
-58.368	-48.912	-16.357
-55.212	-42.722	-23.945
-55.340	-45.161	-22.977
-53.286	-45.684	-23.336
-50.915	-47.220	-20.775
-48.768	-48.488	-17.525
-46.730	-49.841	-14.951
-46.907	-47.080	-16.589
-45.454	-46.183	-16.243
-44.147	-45.790	-16.543
-43.066	-46.084	-17.401
-44.322	-43.482	-18.240
-44.317	-41.537	-20.376
-44.407	-39.998	-22.577
-47.901	-27.994	-28.700
-47.126	-30.668	-26.416
-46.193	-27.706	-26.926
-44.806	-27.449	-25.166
-43.705	-27.528	-23.834
-42.467	-27.947	-23.271
-43.160	-24.322	-24.297
-42.232	-21.029	-24.892
-41.132	-17.822	-25.790
-17.987	-73.029	7.581
-19.653	-72.695	6.368
-17.582	-74.659	7.154
-16.718	-75.644	6.326
-15.021	-75.865	5.387
-4.270	-81.293	2.854
-4.948	-78.840	4.590
-3.207	-78.356	2.985
-3.247	-75.119	2.790
-3.705	-72.075	1.981
-4.918	-69.548	0.783
-5.545	-72.279	-0.497
-7.734	-72.131	-2.632
-9.760	-71.560	-4.711
-10.180	-94.987	-12.115
-8.277	-94.224	-12.030
-10.476	-92.685	-11.708
-11.150	-89.888	-11.557
-12.287	-87.514	-12.310
-23.426	-76.538	-6.993
-20.867	-78.284	-8.144
-21.949	-75.230	-7.326
-20.862	-73.714	-8.737
-19.775	-71.956	-10.923
-17.701	-69.894	-11.432
-21.015	-67.616	-11.356
-22.106	-63.092	-10.954
-23.210	-60.042	-9.295
-24.906	-57.947	-7.873
-25.905	-58.760	-8.973
-28.199	-57.985	-8.702
-29.506	-56.736	-9.299
-27.613	-54.504	-17.104
-26.388	-54.188	-15.286
-26.907	-50.649	-17.665
-26.882	-46.559	-18.572
-27.549	-42.835	-19.710
-28.875	-39.667	-20.478
-29.085	-40.051	-22.306
-31.294	-37.510	-24.555
-34.318	-35.070	-25.982
-27.233	-39.082	-13.892
-24.717	-36.474	-16.845
-28.056	-37.248	-15.453
-28.551	-35.195	-17.027
-28.942	-33.155	-18.478
-29.318	-31.261	-20.079
-31.680	-33.409	-17.580
-33.630	-33.872	-17.272
-34.620	-34.475	-17.673
-40.670	-12.571	51.047
-43.134	-11.229	51.631
-42.523	-10.965	53.474
-43.094	-8.612	55.028
-41.053	-7.147	54.709
-41.348	-9.205	59.093
-39.886	-7.664	56.805
-38.113	-7.265	53.277
-35.283	-8.101	51.521
-32.691	-8.784	50.040
-30.289	-9.215	48.909
-36.624	-26.470	48.897
-37.443	-25.388	48.069
-36.389	-25.162	47.940
-35.925	-22.981	47.775
-35.303	-20.473	48.451
-37.115	-20.586	51.743
-36.341	-19.084	50.709
-35.515	-18.003	49.318
-36.497	-15.822	50.197
-38.160	-14.077	50.583
-23.563	-27.354	53.888
-24.498	-28.339	53.465
-25.340	-27.231	52.831
-27.245	-27.295	51.910
-29.169	-27.612	51.107
-30.218	-25.664	53.256
-30.358	-26.638	51.260
-31.115	-27.752	50.434
-33.094	-27.768	49.950
-35.065	-27.290	49.501
-25.131	-15.523	66.276
-24.434	-16.757	68.526
-26.418	-16.894	69.200
-27.210	-20.224	69.855
-26.456	-22.712	66.742
-30.093	-21.852	66.990
-27.645	-23.092	65.020
-25.256	-23.951	62.886
-24.190	-24.937	59.149
-23.475	-26.145	55.827
-28.147	-9.588	48.339
-29.277	-10.602	50.628
-28.717	-11.648	52.829
-28.403	-12.260	55.461
-31.921	-11.849	59.796
-29.898	-12.340	58.978
-27.813	-12.761	58.588
-27.032	-13.498	61.448
-26.089	-14.367	63.871
-17.556	59.428	15.065
-15.127	59.780	16.536
-17.397	58.376	18.321
-17.117	56.917	21.522
-16.464	54.488	24.241
-20.185	53.136	25.630
-18.055	52.545	26.216
-16.330	52.425	27.666
-16.929	51.681	31.376
-17.081	49.874	34.833
-17.222	47.231	37.147
-29.522	48.182	12.111
-27.544	48.328	9.284
-27.125	48.130	11.363
-25.451	49.633	11.339
-24.907	52.491	12.011
-25.804	51.003	16.872
-25.271	53.349	15.265
-25.118	55.873	13.355
-23.851	58.767	14.513
-20.684	59.676	14.767
-36.753	38.416	29.106
-38.531	40.339	27.920
-35.887	40.621	26.524
-34.875	42.179	23.562
-34.307	44.125	20.949
-30.077	41.358	19.695
-32.011	43.595	19.253
-33.638	46.225	19.070
-32.252	48.493	17.883
-31.082	48.861	15.129
-48.978	-12.293	14.177
-47.233	-12.004	14.300
-48.827	-10.781	11.840
-48.417	-8.642	8.670
-48.554	-5.329	6.321
-52.308	-3.843	5.971
-50.867	-3.101	5.072
-49.513	-2.103	5.091
-50.522	0.706	3.406
-51.059	3.380	1.488
-50.993	6.003	0.146
-63.864	-13.954	16.078
-62.617	-16.174	16.120
-62.646	-14.631	14.244
-60.687	-14.554	13.101
-58.303	-13.962	12.795
-59.594	-10.042	9.936
-57.828	-11.864	11.757
-55.899	-13.390	13.095
-53.516	-12.846	13.436
-51.180	-12.475	13.842
-51.247	-59.771	37.862
-51.504	-60.047	35.611
-50.671	-57.897	36.590
-49.994	-56.172	35.124
-49.645	-54.440	33.983
-50.471	-53.020	37.882
-50.226	-52.861	35.476
-50.160	-52.968	33.311
-51.273	-51.844	33.068
-52.946	-51.253	32.938
-55.080	-50.996	32.988
-40.907	-50.543	37.622
-41.578	-52.501	37.414
-42.712	-52.400	38.736
-44.608	-54.047	40.073
-46.504	-55.737	41.730
-47.538	-53.643	43.069
-48.185	-55.373	43.002
-48.367	-57.122	42.826
-49.952	-58.192	42.200
-50.745	-59.019	40.167
-7.238	-73.611	49.548
-8.625	-75.639	47.543
-9.142	-75.182	49.477
-11.338	-75.331	49.148
-13.379	-74.274	48.435
-12.721	-71.595	50.277
-13.911	-72.352	48.924
-15.131	-72.870	47.058
-16.359	-71.347	45.260
-17.395	-69.757	43.506
-18.494	-67.974	41.991
-10.092	-57.043	59.808
-9.208	-57.230	58.449
-10.689	-57.988	58.363
-10.547	-59.823	57.654
-9.078	-62.475	57.104
-9.815	-64.303	59.728
-8.398	-64.996	58.190
-7.516	-65.237	56.193
-6.428	-68.185	54.410
-6.516	-71.072	52.054
-8.402	3.543	39.323
-6.447	2.578	39.488
-7.636	0.479	40.403
-7.585	-2.729	41.087
-7.491	-5.769	41.657
-10.044	-6.224	42.163
-9.026	-7.518	42.001
-7.625	-8.951	41.851
-8.165	-12.146	41.203
-8.870	-15.013	40.495
-9.631	-17.901	39.866
-3.927	19.892	-18.811
-4.046	17.017	-18.971
-4.170	16.095	-16.026
-4.441	11.479	-13.505
-39.230	1.267	-5.464
-38.886	-1.266	-7.898
-39.316	2.430	-6.746
-39.461	3.790	-8.120
-39.204	5.049	-9.529
-38.136	12.017	-7.020
-38.584	9.070	-8.896
-38.655	6.266	-11.030
-37.615	7.218	-12.591
-36.392	7.946	-14.091
-34.916	8.296	-15.351
-51.823	-36.498	-6.582
-54.122	-36.202	-7.754
-51.944	-34.217	-8.084
-52.338	-31.587	-9.459
-52.889	-29.069	-10.666
-49.587	-27.791	-9.544
-51.196	-27.249	-10.796
-53.546	-26.477	-11.731
-54.617	-23.959	-12.918
-55.530	-21.651	-14.164
-56.254	-19.613	-14.882
-22.682	-99.903	-7.932
-22.060	-99.484	-11.647
-24.106	-98.239	-10.560
-26.134	-97.093	-12.436
-29.223	-95.283	-13.210
-30.725	-93.933	-8.895
-31.387	-93.701	-11.330
-32.052	-92.642	-13.252
-35.549	-89.918	-13.530
-39.347	-87.296	-13.466
-42.486	-83.623	-12.822
-8.695	-49.279	4.395
-9.983	-49.071	3.183
-12.441	-51.869	3.839
-16.312	-53.576	3.753
-19.683	-55.223	3.328
-20.357	-57.491	4.938
-21.499	-57.438	3.921
-21.976	-57.251	2.730
-22.672	-59.578	1.815
-21.558	-62.077	1.365
-18.767	-64.218	1.469
-58.795	0.901	27.838
-58.538	4.281	28.067
-58.167	3.538	30.259
-55.731	4.603	31.529
-52.407	3.733	31.501
-54.425	1.827	34.818
-51.903	2.242	32.760
-49.111	2.013	31.046
-45.729	0.735	30.885
-42.648	0.275	31.273
-40.133	0.939	31.833
-40.633	4.809	49.708
-40.310	6.016	47.297
-40.433	6.879	49.327
-41.354	9.604	49.057
-41.903	12.689	48.599
-39.594	12.344	52.913
-40.848	14.347	50.332
-42.113	15.983	47.735
-41.098	19.038	46.261
-39.790	21.391	44.581
-39.296	23.539	42.960
-38.907	25.205	41.013
-37.669	25.470	43.986
-35.277	26.878	44.569
-32.833	26.879	43.846
-32.432	22.556	47.260
-31.683	24.320	44.613
-31.186	26.093	42.039
-29.484	25.229	39.944
-27.689	25.006	37.908
-26.017	25.208	36.222
-39.720	-32.775	37.129
-41.410	-32.771	36.806
-40.877	-31.174	37.025
-42.233	-29.747	36.992
-43.673	-28.593	36.957
-43.936	-28.184	40.744
-44.391	-27.719	38.932
-45.203	-27.673	37.231
-46.891	-26.908	37.712
-48.766	-26.113	38.456
-50.738	-25.110	39.265
-40.861	-20.429	36.897
-43.897	-20.307	38.405
-42.302	-19.387	35.677
-43.705	-17.943	34.496
-45.174	-16.483	33.328
-42.969	-13.734	31.632
-44.306	-14.548	31.263
-46.754	-15.099	32.259
-48.409	-13.892	31.199
-50.287	-12.873	30.335
-52.230	-11.812	29.480
-54.112	-10.868	28.596
-51.329	-11.134	26.908
-50.961	-9.924	25.251
-51.343	-8.369	24.409
-50.111	-7.504	27.429
-51.272	-7.086	25.919
-52.497	-6.735	24.418
-54.507	-4.744	25.305
-56.997	-2.342	26.617
-20.724	-49.814	60.312
-22.453	-50.980	60.531
-22.412	-49.215	60.145
-24.062	-48.406	60.269
-25.134	-47.595	60.375
-22.490	-44.703	59.049
-24.010	-45.997	59.131
-26.042	-46.767	60.557
-27.212	-45.701	59.968
-28.501	-45.157	58.737
-29.512	-44.957	57.521
-38.960	-33.598	63.630
-37.036	-35.040	61.787
-39.107	-34.671	60.578
-38.954	-35.354	57.662
-38.614	-36.235	55.079
-42.110	-34.617	54.629
-39.898	-35.752	53.348
-37.489	-36.909	52.052
-35.659	-37.193	49.034
-33.763	-37.640	46.420
-32.646	-38.519	44.267
-32.453	-39.451	42.629
-32.848	-37.670	42.432
-33.400	-36.681	40.899
-34.334	-35.645	39.696
-37.232	-33.177	42.629
-35.971	-33.707	40.401
-35.521	-34.664	38.829
-36.772	-33.758	38.179
-38.161	-33.192	37.623
-7.456	-10.168	59.899
-6.319	-12.881	58.923
-6.465	-12.467	60.715
-5.144	-14.662	61.953
-4.648	-17.252	63.204
-5.408	-13.703	66.061
-4.624	-16.593	65.330
-5.348	-19.613	64.108
-5.884	-21.549	64.766
-5.561	-23.787	64.831
-4.692	-26.199	64.525
-10.994	-32.640	64.432
-9.781	-33.017	66.531
-9.956	-34.626	65.303
-9.334	-36.268	67.200
-8.873	-36.931	70.196
-12.317	-34.406	71.881
-10.292	-35.713	72.873
-8.506	-37.394	73.440
-9.371	-38.852	74.959
-11.150	-40.698	75.197
-13.293	-42.622	74.525
-14.443	-44.576	73.843
-15.662	-43.501	74.673
-17.415	-44.720	73.409
-18.767	-45.971	70.966
-18.993	-41.853	70.143
-19.586	-44.586	68.935
-19.325	-47.104	67.761
-19.522	-48.049	64.557
-19.811	-48.891	61.794
-24.156	26.481	35.262
-24.994	23.618	36.587
-24.134	22.318	37.660
-23.337	21.379	39.152
-25.697	16.995	41.539
-24.008	18.696	40.937
-22.734	20.928	41.214
-22.408	21.074	43.864
-22.430	21.592	46.880
-23.043	22.195	50.050
-19.936	-1.306	58.996
-20.510	1.717	58.817
-19.955	0.404	61.519
-20.569	2.294	63.876
-20.506	4.338	65.877
-19.554	-0.723	68.548
-19.283	2.733	68.106
-18.768	6.101	66.612
-16.321	6.926	65.946
-14.081	7.403	65.023
-12.096	8.224	65.276
-10.325	9.263	66.169
-10.791	6.255	67.610
-9.213	3.359	68.766
-8.022	0.131	67.689
-10.398	-2.364	67.710
-9.101	-2.218	66.215
-7.806	-2.251	65.177
-7.955	-4.701	62.989
-8.010	-7.452	61.249
-6.224	38.646	-8.182
-4.002	37.439	-6.925
-5.241	40.462	-6.235
-4.784	41.808	-3.816
-4.645	42.380	-0.902
-8.479	44.675	-0.784
-6.532	43.747	0.353
-5.698	42.220	1.949
-6.836	41.823	4.512
-7.611	41.551	7.392
-8.627	41.043	10.413
-6.856	49.303	28.326
-7.034	47.110	26.087
-6.570	45.889	28.925
-6.021	42.613	29.751
-6.012	39.186	30.996
-5.984	38.543	35.866
-6.610	37.166	33.960
-6.354	35.698	32.239
-7.024	32.479	32.775
-7.742	29.503	33.137
-8.638	26.036	33.764
-9.866	23.158	34.483
-8.434	24.102	36.175
-8.328	22.335	38.537
-8.065	20.484	40.826
-5.817	24.031	42.191
-6.885	21.209	42.552
-7.707	18.303	43.130
-7.983	16.674	45.690
-8.512	15.375	48.035
-8.319	13.882	50.308
-44.816	34.756	-15.614
-42.564	33.523	-15.789
-41.701	36.436	-15.502
-38.910	37.900	-13.836
-36.026	38.970	-12.617
-38.357	43.770	-13.684
-35.617	41.872	-12.932
-33.380	40.005	-11.826
-30.916	40.685	-12.325
-28.030	42.431	-12.748
-25.567	44.504	-11.988
-15.417	62.680	-7.234
-14.416	59.685	-8.906
-11.896	62.517	-9.475
-8.856	62.610	-11.813
-6.016	61.910	-13.977
-5.025	62.083	-8.642
-4.504	61.028	-12.161
-4.431	59.758	-15.888
-4.194	56.662	-17.544
-4.092	53.173	-18.663
-3.707	49.606	-19.425
-3.651	46.472	-20.289
-5.075	47.410	-16.354
-6.024	45.167	-13.934
-7.922	43.131	-12.067
-8.994	46.596	-8.785
-9.623	43.920	-9.741
-9.622	41.217	-10.474
-9.555	39.784	-9.340
-8.298	38.953	-8.538
-42.885	8.004	20.672
-44.966	8.579	19.074
-43.678	9.655	21.273
-44.988	11.371	22.230
-46.508	13.370	22.943
-41.936	16.339	22.752
-44.916	15.993	23.128
-48.320	15.653	23.046
-50.075	17.932	21.940
-51.193	20.191	20.124
-52.209	22.161	18.301
-37.276	38.829	9.294
-37.478	36.496	9.497
-38.664	38.753	7.166
-40.770	38.464	5.539
-43.368	38.174	4.284
-41.305	41.176	1.083
-43.613	39.673	1.947
-45.828	37.166	2.608
-48.187	36.215	0.573
-50.065	34.917	-1.472
-50.321	33.137	-2.877
-48.836	31.531	-3.304
-49.769	33.800	-4.562
-49.033	34.359	-6.334
-48.672	34.888	-8.354
-46.378	38.416	-8.459
-48.047	36.902	-9.752
-48.556	35.291	-10.550
-48.087	35.458	-12.726
-46.750	35.341	-14.520
-50.586	-24.838	2.432
-52.483	-22.576	2.232
-49.565	-24.657	3.318
-48.971	-24.746	4.935
-48.037	-24.434	7.122
-43.693	-27.849	9.375
-45.019	-25.693	9.070
-46.077	-23.454	8.492
-43.418	-22.661	7.981
-40.931	-23.043	5.902
-39.277	-24.191	3.864
-37.702	-6.564	15.310
-36.115	-9.712	14.744
-37.058	-6.075	14.815
-36.658	-5.436	14.133
-36.326	-4.650	13.360
-35.697	1.567	12.965
-35.489	-0.907	13.130
-36.171	-3.821	12.429
-36.118	-3.031	11.312
-36.280	-2.409	10.025
-36.568	-1.815	8.602
-37.061	-1.364	7.287
-34.572	1.876	8.709
-33.454	6.243	9.032
-32.089	10.368	9.245
-32.182	12.420	10.891
-31.533	13.419	10.251
-31.095	14.279	9.366
-30.582	17.937	9.278
-30.387	21.433	8.737
-30.415	24.517	7.561
-59.095	-32.770	39.174
-59.539	-34.753	40.092
-60.435	-33.861	38.100
-60.776	-35.144	36.486
-60.212	-36.177	34.639
-62.827	-33.000	32.310
-61.044	-35.231	32.618
-58.933	-36.829	32.755
-57.305	-37.337	31.221
-55.778	-38.061	29.916
-53.944	-39.051	28.707
-46.667	-28.406	18.311
-47.222	-30.452	16.791
-44.654	-30.799	17.311
-42.852	-33.603	16.864
-41.773	-35.879	17.276
-39.256	-34.373	17.060
-40.342	-36.052	16.324
-41.297	-37.382	17.049
-41.817	-38.282	15.767
-43.391	-38.414	13.962
-45.708	-37.652	12.304
-48.421	-36.465	11.161
-45.770	-36.147	10.424
-45.898	-34.463	8.477
-46.272	-32.740	6.677
-41.877	-33.919	7.837
-44.267	-32.564	6.170
-46.933	-30.951	5.088
-47.855	-29.029	3.810
-49.142	-26.937	2.953
-44.939	-74.856	16.991
-46.044	-74.837	15.131
-44.464	-73.020	16.255
-43.351	-71.534	15.105
-42.424	-69.980	14.428
-42.928	-69.384	18.159
-42.186	-68.765	15.932
-41.978	-68.362	13.744
-42.141	-66.796	12.991
-42.777	-65.368	12.402
-43.849	-64.357	11.997
-46.270	-54.056	20.650
-43.873	-53.756	19.327
-45.826	-52.872	18.871
-45.794	-51.901	16.612
-46.146	-50.835	14.295
-51.040	-50.896	14.490
-48.775	-50.017	13.418
-46.963	-49.844	12.146
-47.783	-48.758	9.994
-48.718	-47.969	7.996
-49.550	-47.137	6.270
-50.379	-46.269	4.915
-50.656	-45.530	5.909
-52.010	-44.060	5.423
-53.817	-42.520	4.957
-56.685	-43.951	7.821
-56.444	-42.765	6.202
-55.909	-41.135	4.662
-58.485	-39.596	4.619
-61.110	-38.001	4.636
-63.512	-36.134	5.030
-26.890	-58.195	52.046
-25.689	-59.528	50.830
-26.376	-58.579	49.797
-26.553	-59.246	47.805
-27.270	-60.268	46.178
-27.282	-57.531	44.995
-27.636	-59.466	44.942
-28.039	-61.419	44.808
-28.395	-62.706	43.516
-28.369	-63.868	42.080
-28.161	-65.152	40.532
-39.438	-69.326	46.675
-37.360	-70.211	47.003
-38.136	-71.834	45.508
-37.009	-74.435	43.041
-36.357	-76.735	40.144
-38.986	-74.002	36.756
-38.033	-76.319	37.251
-36.313	-78.489	37.153
-36.401	-79.656	34.338
-36.776	-80.689	31.583
-37.621	-81.876	28.551
-38.258	-83.293	25.839
-39.255	-80.246	26.994
-40.788	-79.113	25.578
-41.971	-78.055	24.029
-43.202	-75.150	26.096
-42.063	-75.654	24.282
-42.731	-77.013	22.421
-43.511	-76.105	20.579
-44.016	-75.444	18.765
-18.043	-64.028	22.305
-19.420	-65.534	19.956
-18.879	-66.242	21.624
-18.540	-69.079	20.325
-17.098	-71.488	19.361
-17.565	-70.529	23.419
-16.787	-72.494	20.825
-14.790	-73.290	19.263
-12.039	-74.209	20.060
-9.326	-75.148	21.102
-6.680	-76.328	22.355
-17.613	-87.208	34.938
-14.343	-87.328	34.448
-15.691	-87.345	31.818
-13.667	-87.343	29.127
-12.922	-89.090	27.472
-16.688	-87.761	24.276
-14.738	-89.601	25.024
-12.568	-91.491	25.585
-11.839	-93.903	23.243
-12.008	-95.944	20.296
-12.601	-97.456	17.283
-13.075	-98.918	14.756
-15.088	-97.623	16.561
-17.636	-97.435	15.895
-20.478	-96.533	15.502
-20.195	-92.249	16.130
-21.597	-93.864	15.581
-23.148	-95.535	14.553
-25.527	-94.729	13.536
-27.752	-93.977	12.757
-29.622	-92.684	11.813
-12.992	-30.965	46.333
-14.557	-30.265	44.463
-15.096	-32.657	45.318
-16.529	-34.437	44.182
-17.190	-36.184	43.303
-16.860	-39.069	46.868
-17.079	-38.427	44.692
-16.828	-37.616	42.769
-15.735	-38.696	42.576
-13.859	-39.423	43.062
-11.350	-39.859	43.880
-8.001	-57.028	43.209
-7.853	-55.370	42.401
-6.904	-56.829	41.233
-6.257	-56.707	38.986
-6.815	-56.837	37.246
-5.012	-62.011	36.730
-5.689	-59.359	36.179
-7.332	-57.132	35.426
-7.716	-57.338	33.589
-7.951	-57.498	31.713
-8.162	-57.642	30.045
-8.233	-57.381	28.615
-5.751	-60.301	28.622
-4.008	-62.828	26.811
-4.906	-65.736	24.703
-6.881	-67.958	27.303
-7.728	-67.250	25.589
-8.660	-66.380	23.908
-12.469	-64.791	24.005
-15.637	-63.562	23.701
-4.727	-13.260	31.065
-4.466	-12.756	30.545
-4.731	-16.207	30.277
-4.774	-19.274	29.485
-4.653	-22.402	28.629
-5.972	-25.487	29.134
-5.425	-25.591	28.523
-4.359	-25.756	27.733
-4.716	-39.754	23.719
-5.742	-41.668	23.233
-6.507	-38.961	25.793
-6.316	-41.291	24.319
-6.133	-43.366	22.610
-5.667	-44.925	21.839
-4.348	-46.532	21.147
-3.602	-49.182	20.745
-26.644	24.305	-20.297
-28.107	20.927	-22.716
-25.239	21.891	-21.353
-24.034	19.147	-22.274
-22.930	16.441	-22.601
-20.094	19.108	-21.205
-20.917	16.313	-22.107
-22.145	13.334	-22.606
-22.060	10.265	-21.202
-22.432	8.098	-18.938
-59.685	-5.019	-2.910
-58.742	-5.887	-6.108
-59.162	-3.671	-5.769
-58.003	-2.703	-9.053
-56.331	-1.814	-12.211
-57.983	2.112	-7.615
-57.475	1.157	-11.339
-54.642	-0.939	-15.012
-53.264	-0.186	-17.774
-52.055	0.721	-20.671
-51.211	2.053	-23.112
-40.620	14.119	-26.551
-42.300	17.051	-26.521
-39.762	17.775	-29.128
-38.894	18.636	-32.673
-38.043	17.257	-36.190
-32.707	17.218	-37.163
-34.784	16.611	-38.261
-36.868	13.896	-38.918
-36.214	9.539	-39.390
-36.483	5.776	-39.306
-37.500	2.942	-40.622
-38.395	0.512	-42.547
-35.849	2.442	-42.356
-34.004	1.689	-43.790
-32.362	0.627	-44.398
-30.239	4.526	-42.606
-30.973	1.987	-43.473
-30.974	-0.897	-43.503
-30.318	-2.178	-41.674
-30.240	-3.169	-39.194
-29.670	-4.351	-36.803
-43.349	-66.453	-0.258
-43.675	-67.698	-1.483
-45.498	-65.968	-1.843
-47.675	-66.123	-3.417
-48.901	-65.736	-5.102
-52.214	-63.960	-4.309
-50.884	-64.363	-5.556
-49.458	-64.496	-6.435
-49.821	-63.261	-7.410
-49.969	-61.751	-8.612
-50.236	-60.333	-9.821
-59.606	-35.879	-18.653
-58.490	-38.851	-18.483
-57.270	-36.337	-18.927
-55.754	-37.091	-19.807
-55.071	-38.028	-21.469
-54.285	-31.674	-21.970
-54.550	-35.301	-22.832
-55.326	-39.064	-23.444
-55.414	-40.154	-25.419
-53.923	-40.857	-26.958
-51.281	-40.599	-27.079
-49.002	-39.691	-26.690
-51.809	-37.717	-28.403
-51.561	-34.795	-29.167
-50.778	-31.565	-29.758
-54.710	-28.410	-31.615
-52.495	-28.442	-31.558
-49.830	-28.326	-30.479
-48.717	-25.158	-31.409
-47.598	-21.838	-32.216
-46.023	-19.414	-33.370
-11.990	-80.474	9.895
-12.873	-80.075	8.643
-11.961	-81.952	7.936
-11.003	-82.520	5.726
-8.961	-83.008	3.943
-10.029	-86.142	2.545
-8.429	-85.002	2.150
-6.137	-83.680	2.548
-4.014	-83.358	0.851
-3.351	-82.798	-1.514
-4.534	-82.145	-3.758
-20.842	-86.778	-10.637
-19.147	-86.925	-9.889
-21.503	-84.665	-10.377
-22.802	-82.206	-8.975
-23.820	-79.972	-7.985
-28.056	-77.703	-10.775
-26.581	-77.789	-8.646
-24.898	-77.492	-7.443
-25.755	-74.452	-7.045
-26.826	-71.181	-6.978
-28.050	-67.823	-7.394
-28.808	-64.612	-8.103
-29.151	-65.803	-9.131
-29.044	-63.615	-11.659
-28.171	-61.317	-14.375
-31.056	-62.888	-16.715
-29.997	-60.600	-16.821
-28.698	-57.868	-16.919
-30.945	-53.617	-18.516
-33.348	-49.756	-19.922
-35.554	-46.788	-22.325
-13.916	-40.918	-3.998
-14.823	-39.709	-4.797
-16.100	-38.708	-5.677
-17.238	-37.759	-6.778
-15.385	-42.136	-9.873
-15.513	-38.543	-9.286
-18.316	-36.680	-7.822
-19.331	-35.574	-8.884
-20.293	-34.434	-9.964
-21.092	-33.313	-11.094
-21.605	-32.273	-12.189
-18.671	-33.772	-13.267
-19.662	-36.520	-14.880
-22.912	-39.040	-14.106
-23.570	-43.014	-10.345
-24.904	-41.794	-11.281
-26.155	-40.534	-12.478
-28.974	-41.614	-11.168
-31.254	-42.457	-10.315
-32.784	-43.443	-10.160
-52.028	-7.776	40.047
-54.343	-5.223	41.049
-53.344	-6.288	42.770
-53.422	-4.369	44.984
-52.124	-2.110	46.292
-51.331	-6.711	48.088
-51.353	-3.086	47.878
-50.116	0.212	46.506
-47.745	2.051	46.716
-45.647	2.808	47.445
-43.798	2.937	48.554
-45.162	-9.286	51.703
-45.487	-7.309	50.332
-45.171	-5.741	47.995
-40.598	-5.775	46.809
-42.806	-4.996	46.271
-44.606	-3.550	46.854
-43.812	-1.252	47.522
-43.093	0.608	48.652
-41.996	2.853	49.736
-40.477	2.696	50.879
-39.038	2.752	52.263
-37.410	3.038	54.018
-34.328	-0.319	50.112
-34.662	1.316	52.771
-35.426	3.781	55.234
-33.553	4.776	55.714
-31.454	5.954	55.915
-29.600	7.735	55.409
-49.132	-25.540	56.049
-49.821	-24.241	54.826
-49.677	-22.172	57.040
-49.091	-19.399	56.491
-47.970	-18.148	54.197
-44.733	-19.791	54.183
-45.448	-18.906	52.583
-46.527	-18.404	51.116
-44.810	-19.248	47.825
-42.898	-20.038	44.327
-41.159	-20.865	40.990
-37.532	-24.044	47.134
-37.118	-22.691	46.061
-36.658	-21.621	44.741
-33.912	-19.770	43.786
-34.809	-20.578	42.983
-36.605	-20.929	43.097
-37.229	-20.783	41.360
-38.312	-20.925	39.676
-39.511	-20.899	38.174
-38.750	-19.686	36.421
-38.974	-17.842	35.566
-40.162	-15.817	35.500
-39.642	-15.855	38.597
-41.158	-15.019	37.307
-42.515	-13.882	36.241
-45.509	-12.003	37.441
-48.759	-9.942	38.862
-22.210	-33.610	71.082
-22.984	-35.165	68.227
-24.156	-33.462	70.087
-25.992	-33.004	69.285
-27.803	-32.580	68.763
-26.683	-30.142	67.362
-28.619	-30.805	68.762
-29.806	-32.374	68.361
-31.911	-32.408	67.957
-33.997	-32.441	67.416
-36.085	-32.367	66.689
-26.058	-29.100	54.355
-28.140	-29.583	56.498
-30.539	-29.867	59.395
-32.517	-29.770	55.925
-32.830	-30.014	59.157
-32.977	-29.826	62.333
-35.151	-29.769	65.059
-36.997	-30.666	66.386
-38.263	-32.208	65.708
-40.382	-31.779	64.464
-42.315	-31.083	62.990
-44.024	-30.098	61.410
-42.828	-26.455	62.432
-44.650	-27.473	62.061
-45.533	-29.006	60.028
-46.906	-27.767	58.784
-48.135	-26.644	57.412
-13.265	-12.277	68.135
-11.944	-13.461	69.727
-13.006	-14.485	68.360
-12.965	-16.577	69.308
-13.355	-18.139	70.988
-15.805	-17.893	68.476
-14.946	-18.667	70.795
-13.957	-19.979	73.160
-14.283	-22.949	73.877
-14.033	-25.927	71.868
-13.284	-28.214	68.368
-23.588	-18.418	70.339
-22.469	-20.711	71.205
-20.641	-22.966	70.595
-20.561	-24.897	64.902
-19.507	-24.851	67.104
-18.440	-24.689	69.314
-16.258	-26.248	67.798
-14.321	-28.267	66.104
-12.508	-30.555	64.817
-12.216	-32.324	62.643
-12.983	-33.502	62.297
-14.425	-33.856	63.445
-16.399	-32.380	60.289
-16.230	-33.067	62.689
-16.252	-33.094	65.873
-18.400	-31.711	69.446
-20.578	-31.945	71.766
-28.351	9.216	53.891
-27.593	6.253	53.918
-25.794	4.921	51.708
-24.295	4.077	50.128
-25.223	0.039	48.652
-24.092	1.594	49.111
-23.040	3.229	49.685
-22.122	1.967	50.374
-21.424	0.361	51.968
-20.757	-1.265	54.207
-26.323	-9.273	48.231
-24.748	-8.589	48.534
-23.459	-7.603	49.387
-23.738	-10.849	53.570
-23.134	-8.827	51.905
-22.394	-6.440	50.754
-21.574	-5.224	52.535
-20.847	-4.017	54.613
-20.258	-2.791	56.744
-20.170	-4.055	59.002
-20.597	-5.710	61.300
-19.805	-7.486	63.078
-19.046	-11.124	61.030
-18.567	-9.807	62.564
-18.268	-8.460	64.387
-16.584	-9.513	65.391
-14.850	-10.941	66.573
-8.875	56.154	3.074
-10.012	53.892	4.282
-8.937	56.486	5.908
-7.805	56.471	8.528
-7.423	56.282	11.798
-7.612	61.386	12.689
-7.017	58.729	13.812
-7.488	55.975	14.928
-6.866	55.298	17.812
-6.165	54.200	20.947
-6.014	53.348	24.463
-13.046	60.802	18.526
-11.186	61.787	20.980
-9.137	61.660	23.115
-11.233	58.184	27.684
-9.040	59.943	26.515
-7.335	60.404	24.733
-6.125	58.275	26.011
-5.578	55.495	27.009
-6.126	52.383	27.836
-5.885	50.831	30.795
-5.507	49.026	34.042
-5.319	47.045	37.352
-5.937	50.527	39.740
-5.038	47.938	40.431
-4.712	44.798	40.913
-4.925	42.586	44.576
-5.637	40.352	47.842
-6.222	37.795	50.527
-38.652	52.457	-1.794
-38.348	53.880	-3.840
-36.877	54.492	-1.787
-33.703	54.622	-2.177
-30.262	53.760	-2.899
-30.338	51.678	0.078
-28.786	52.289	-1.568
-27.094	53.419	-3.375
-23.724	53.975	-3.693
-21.239	55.787	-3.886
-19.555	58.416	-4.385
-26.101	49.322	6.797
-24.890	51.163	4.899
-24.251	53.445	3.189
-22.284	57.185	5.791
-22.989	56.529	3.690
-22.730	55.548	1.145
-20.958	57.883	-0.593
-19.792	60.082	-2.754
-18.167	61.845	-4.976
-15.391	64.369	-4.816
-11.893	65.621	-3.764
-8.988	65.833	-1.979
-11.239	65.006	2.742
-8.819	65.348	1.095
-6.890	64.458	-0.378
-6.262	61.655	0.855
-7.096	58.525	1.899
-40.679	25.424	25.092
-40.051	25.684	23.584
-42.211	27.511	24.382
-44.033	29.315	23.191
-44.771	31.276	21.584
-44.977	33.493	23.623
-44.655	33.395	21.761
-43.664	32.932	20.112
-41.426	34.159	18.579
-38.992	35.448	16.773
-37.492	37.095	14.414
-40.349	41.433	26.009
-41.390	41.743	23.311
-41.251	41.293	20.539
-38.739	46.061	18.477
-39.635	43.561	18.197
-39.941	40.618	18.182
-38.511	39.951	16.183
-37.628	39.532	14.025
-37.057	39.045	11.640
-38.173	41.387	9.559
-39.447	43.533	7.721
-40.460	45.669	6.058
-39.294	49.164	8.091
-40.095	48.587	6.088
-40.804	47.479	3.756
-40.099	49.371	1.691
-39.020	51.073	0.019
-34.234	-29.800	18.341
-33.561	-29.375	16.994
-33.979	-27.940	18.032
-34.281	-25.488	17.718
-34.935	-22.617	17.843
-37.487	-20.063	18.991
-36.477	-19.812	18.813
-35.674	-19.545	18.218
-36.498	-16.356	18.204
-37.038	-13.414	17.636
-37.517	-10.835	16.091
-45.555	-11.700	14.348
-43.980	-11.269	14.324
-42.386	-10.676	14.229
-44.983	-5.027	11.018
-42.859	-7.020	12.635
-40.993	-9.679	14.285
-40.013	-8.621	14.741
-39.198	-7.738	15.185
-38.457	-7.061	15.477
-39.121	-4.110	15.462
-39.183	-1.216	14.358
-38.825	1.590	12.484
-41.235	2.597	9.905
-39.608	3.684	10.135
-38.394	5.095	10.634
-38.702	8.267	9.818
-38.465	11.053	8.549
-38.233	14.164	7.266
-58.966	-24.180	26.169
-60.500	-25.803	25.001
-59.842	-24.630	24.074
-60.249	-24.934	21.605
-59.522	-25.108	19.370
-58.717	-22.044	21.225
-58.076	-23.641	19.645
-57.688	-25.354	18.185
-55.351	-25.608	17.917
-52.921	-25.834	18.272
-50.582	-26.138	18.827
-60.222	-17.796	16.489
-57.351	-18.640	17.287
-54.695	-19.476	18.339
-53.081	-18.796	15.030
-52.751	-19.681	17.492
-52.613	-20.853	19.310
-51.051	-22.700	19.879
-49.632	-24.567	19.823
-48.249	-26.500	19.211
-46.015	-26.860	19.589
-43.750	-27.477	20.014
-41.527	-28.187	20.327
-42.361	-24.738	18.899
-40.859	-26.848	20.008
-39.310	-28.910	20.300
-37.219	-29.521	20.031
-35.443	-29.837	19.405
-40.926	-66.479	29.651
-40.974	-65.365	27.523
-40.058	-64.674	28.914
-39.605	-62.948	28.182
-39.796	-61.294	27.281
-42.410	-62.045	30.075
-41.423	-60.959	28.110
-40.560	-59.689	26.167
-41.825	-58.249	24.964
-43.166	-56.963	23.924
-44.825	-56.228	22.710
-51.779	-60.203	33.233
-51.652	-60.357	30.813
-50.817	-60.114	28.602
-51.532	-56.561	29.081
-51.781	-58.532	27.595
-49.531	-59.208	26.685
-48.084	-57.877	24.922
-47.226	-56.469	23.360
-46.772	-55.252	22.103
-48.566	-54.660	21.567
-50.773	-54.622	20.481
-53.352	-54.781	19.392
-54.717	-54.452	22.587
-55.568	-54.825	20.558
-55.892	-54.536	18.292
-58.341	-53.618	17.378
-60.368	-52.116	16.945
-61.975	-50.157	17.223
-29.911	-51.607	38.244
-29.686	-53.246	38.217
-30.772	-52.919	36.822
-32.210	-54.537	36.484
-33.951	-56.351	37.250
-35.446	-54.147	35.841
-35.318	-56.310	37.383
-35.525	-58.566	38.668
-36.965	-60.785	40.709
-38.151	-62.959	42.996
-39.025	-64.869	45.438
-42.167	-54.351	37.776
-42.295	-56.401	38.864
-41.983	-58.245	40.768
-45.297	-59.973	42.984
-43.384	-60.173	43.165
-41.424	-60.067	43.103
-41.126	-62.225	44.730
-40.696	-64.544	45.922
-40.143	-66.889	46.705
-40.886	-68.526	45.534
-41.151	-69.321	42.817
-41.114	-69.358	39.850
-42.999	-66.825	39.674
-41.708	-67.757	38.401
-40.924	-68.932	37.018
-40.494	-68.362	34.329
-40.613	-67.560	31.985
-10.853	-70.135	35.337
-13.547	-70.074	33.749
-12.788	-70.928	35.500
-14.290	-72.582	35.283
-15.130	-74.933	35.375
-13.269	-73.826	39.033
-15.142	-75.002	37.526
-15.909	-77.693	35.708
-16.568	-80.275	36.719
-16.752	-82.713	38.161
-17.491	-84.686	38.601
-10.804	-76.892	46.030
-13.371	-77.327	45.179
-15.829	-77.876	44.427
-17.202	-77.239	45.334
-17.426	-78.426	44.810
-17.329	-79.284	43.487
-18.207	-81.229	41.783
-18.957	-83.537	39.812
-18.739	-85.713	37.533
-20.116	-85.958	35.173
-21.457	-85.701	32.063
-22.789	-84.684	29.073
-22.947	-79.214	32.617
-23.474	-81.051	29.513
-23.624	-82.925	26.382
-24.476	-81.030	23.879
-25.058	-79.164	21.659
-25.632	-77.513	19.839
-13.141	-45.865	56.386
-12.945	-45.848	54.314
-10.882	-46.752	55.375
-8.074	-47.024	54.449
-6.226	-48.600	53.083
-6.060	-50.423	56.057
-6.180	-50.231	53.885
-6.229	-50.287	51.694
-5.324	-51.986	50.030
-5.758	-54.249	48.041
-7.924	-55.679	46.519
-8.599	-57.193	56.793
-8.230	-57.134	55.037
-8.181	-57.065	53.096
-9.533	-60.467	52.368
-9.700	-58.415	51.640
-8.593	-56.940	51.143
-9.140	-56.828	49.173
-9.303	-56.853	47.233
-8.899	-56.995	45.290
-7.688	-58.759	43.908
-6.306	-60.982	42.670
-5.124	-63.733	41.277
-4.816	-65.994	43.814
-4.724	-66.454	41.650
-4.534	-66.820	39.564
-4.356	-69.972	37.662
-7.511	-70.996	36.048
-4.195	15.914	25.513
-3.818	13.884	25.612
-4.225	12.843	26.921
-4.139	9.735	28.283
-4.119	6.440	29.487
-3.783	7.464	30.908
-4.087	5.339	30.540
-4.146	3.069	30.460
-4.217	-0.360	31.198
-4.343	-3.769	31.696
-4.364	-7.222	31.918
-4.462	1.449	39.360
-3.338	-0.108	38.274
-3.210	-2.001	36.649
-3.208	-7.043	39.477
-3.014	-5.483	37.169
-3.106	-3.994	34.811
-3.334	-6.064	33.388
-3.858	-8.315	32.478
-4.442	-10.731	31.784
-4.218	-14.137	31.572
-4.122	-17.446	31.298
-4.063	-20.556	31.113
-2.686	-19.450	34.621
-3.036	-21.400	32.505
-3.883	-23.478	30.997
-3.459	-26.229	30.994
-3.065	-28.828	31.243
-2.946	-31.322	32.070
-12.929	27.560	-20.336
-13.608	24.449	-20.056
-12.877	24.677	-18.772
-12.658	21.329	-17.301
-12.238	17.673	-16.236
-9.888	19.593	-18.786
-10.885	16.723	-16.877
-11.767	13.347	-16.451
-4.758	14.061	-18.691
-5.576	10.748	-17.784
-45.669	-9.527	-11.555
-47.599	-5.312	-11.528
-46.125	-6.967	-13.004
-46.362	-4.202	-14.453
-46.308	-1.469	-15.973
-43.273	-6.563	-16.067
-44.925	-3.162	-17.122
-46.091	1.266	-17.762
-45.443	3.790	-19.416
-44.569	6.180	-21.139
-43.253	8.347	-22.926
-39.583	-3.010	-10.894
-39.871	-3.723	-14.609
-40.608	-3.049	-17.901
-39.659	-0.698	-17.453
-40.549	-1.211	-19.261
-41.795	-0.901	-20.435
-42.493	2.259	-22.225
-42.356	6.164	-23.511
-41.651	10.132	-25.005
-39.824	11.357	-26.981
-37.800	11.779	-28.868
-35.765	11.616	-30.542
-36.373	7.403	-27.255
-35.282	9.166	-29.659
-33.696	10.971	-31.843
-31.435	9.883	-32.391
-29.107	8.446	-32.351
-27.327	6.501	-32.044
-62.452	-53.432	-2.103
-60.636	-53.572	-4.149
-62.508	-50.738	-4.212
-61.932	-48.116	-6.090
-61.786	-46.129	-7.852
-64.176	-42.937	-6.216
-63.289	-43.767	-8.241
-61.420	-44.480	-9.697
-61.020	-42.756	-11.541
-61.101	-40.678	-13.488
-61.487	-38.366	-15.440
-56.490	-35.769	-9.013
-59.027	-35.310	-9.992
-61.758	-35.040	-10.572
-61.059	-29.645	-11.641
-62.548	-32.256	-11.671
-63.763	-34.851	-11.866
-64.071	-35.158	-13.880
-63.169	-35.443	-15.866
-61.822	-35.772	-17.682
-61.184	-32.477	-19.074
-60.118	-29.647	-19.059
-59.019	-27.347	-19.754
-63.727	-23.786	-18.744
-60.827	-24.123	-20.152
-58.205	-24.546	-21.164
-57.485	-21.834	-22.356
-57.267	-19.912	-24.420
-56.502	-17.344	-26.255
-11.988	-94.350	0.796
-11.915	-93.524	-1.501
-12.711	-94.814	-2.912
-11.944	-95.995	-6.242
-10.673	-97.218	-9.505
-13.903	-98.218	-10.190
-12.214	-97.898	-11.380
-10.751	-96.655	-11.973
-12.108	-94.947	-12.642
-14.633	-92.948	-11.564
-17.520	-90.855	-10.370
-21.516	-98.662	-15.172
-20.967	-97.283	-16.989
-20.181	-95.441	-16.757
-26.187	-92.310	-16.544
-22.984	-92.677	-15.936
-19.872	-93.791	-14.967
-20.103	-92.187	-12.972
-20.209	-90.357	-11.855
-20.514	-88.509	-11.041
-22.678	-85.843	-12.850
-25.852	-83.187	-13.495
-29.528	-80.969	-13.263
-32.223	-81.339	-14.919
-32.397	-79.932	-13.884
-32.661	-78.254	-14.184
-35.206	-75.727	-16.405
-38.861	-72.275	-18.130
-42.100	-68.138	-18.464
-13.861	-41.048	-1.105
-11.109	-48.562	2.238
-11.954	-47.877	1.263
-12.556	-46.972	0.310
-18.667	-51.784	0.020
-16.080	-49.279	-0.696
-12.955	-45.909	-0.687
-13.054	-44.703	-1.660
-13.089	-43.340	-2.488
-13.389	-42.102	-3.256
-14.399	-44.063	-4.900
-15.251	-45.882	-5.579
-14.507	-47.427	-5.629
-14.616	-51.975	-2.874
-13.410	-50.408	-3.941
-13.387	-49.301	-5.694
-13.100	-51.919	-6.098
-14.150	-55.250	-6.768
-15.739	-58.422	-7.121
-58.975	0.378	11.438
-59.056	2.214	10.165
-59.301	2.819	12.318
-58.184	5.124	13.362
-55.549	5.488	14.505
-57.952	5.891	17.803
-55.318	5.716	16.835
-52.842	4.969	15.561
-50.249	4.796	16.586
-47.741	4.928	17.716
-45.442	5.505	19.009
-56.519	6.312	27.062
-53.803	6.102	25.311
-51.338	5.076	23.713
-47.027	4.211	25.986
-48.001	4.379	24.126
-48.885	4.573	22.646
-46.352	4.514	21.399
-44.346	5.043	20.732
-43.149	6.279	20.366
-41.031	7.435	21.795
-39.071	9.238	23.266
-37.455	11.879	24.127
-36.181	8.653	25.196
-36.052	11.542	24.880
-36.449	14.512	24.353
-36.221	16.897	24.690
-36.642	19.308	25.063
-37.799	21.409	25.482
-54.316	-2.573	40.881
-51.685	-1.175	39.533
-48.164	-1.024	37.767
-45.764	0.510	40.112
-45.189	-0.127	38.034
-44.780	-0.548	36.046
-42.205	0.033	34.671
-40.081	1.011	33.610
-38.222	2.637	32.709
-40.232	7.048	44.902
-39.899	7.550	42.520
-39.407	7.172	40.217
-41.245	11.880	40.883
-39.856	9.496	38.918
-38.999	6.656	37.819
-38.094	6.110	35.669
-37.278	5.336	33.685
-36.592	4.706	31.832
-35.784	7.200	31.013
-35.556	9.983	30.452
-36.020	12.690	29.846
-39.143	15.785	32.831
-38.006	15.447	30.934
-36.909	15.625	29.080
-37.798	18.506	28.438
-38.896	21.240	27.213
-39.813	23.366	26.158
-42.180	25.089	26.537
-44.390	26.929	27.067
-45.802	28.819	27.743
-46.031	27.117	31.245
-45.769	28.785	29.809
-45.324	30.706	28.575
-43.477	32.026	29.274
-41.338	33.084	29.871
-39.106	34.488	30.210
-38.106	26.601	38.917
-37.599	28.070	37.330
-37.338	29.900	36.324
-33.113	31.173	39.340
-34.816	31.459	37.140
-36.717	31.071	34.403
-36.357	31.774	32.271
-36.473	33.302	30.865
-36.772	35.632	30.001
-34.637	36.421	29.517
-32.362	36.230	27.829
-30.167	35.534	26.129
-28.849	34.566	30.544
-28.538	34.695	27.534
-27.856	35.706	24.875
-25.973	36.784	24.376
-24.638	38.622	24.539
-23.947	41.140	25.517
-48.980	-46.996	45.033
-50.718	-47.328	46.146
-49.461	-45.279	45.468
-50.228	-43.436	46.012
-51.346	-41.499	46.338
-48.050	-40.014	44.025
-50.098	-39.740	45.278
-52.470	-39.511	46.261
-53.420	-37.388	45.095
-54.345	-35.428	43.331
-55.427	-33.730	41.510
-43.221	-33.041	36.885
-45.208	-33.416	37.347
-47.367	-33.715	37.955
-47.040	-30.702	35.362
-48.224	-32.293	36.681
-49.566	-33.738	38.727
-51.925	-33.502	39.366
-54.384	-33.006	39.769
-56.835	-32.493	39.794
-58.085	-31.379	38.227
-59.009	-30.074	36.546
-59.310	-29.028	34.715
-55.135	-28.015	34.538
-57.427	-28.042	34.101
-59.188	-28.308	32.827
-59.119	-27.264	31.393
-58.632	-26.089	29.996
-57.985	-25.111	28.686
-50.482	-23.532	53.178
-51.312	-23.387	51.433
-52.051	-23.675	49.411
-53.572	-19.075	51.320
-53.976	-21.837	49.954
-52.482	-24.200	47.213
-52.754	-24.619	44.664
-52.865	-24.568	42.322
-52.806	-23.918	40.158
-47.426	-19.601	40.551
-51.158	-18.589	42.787
-54.434	-17.593	44.344
-53.795	-16.103	40.710
-55.523	-16.915	43.188
-56.609	-18.537	44.612
-56.506	-20.543	43.364
-54.832	-22.105	40.788
-52.951	-23.111	38.108
-53.429	-22.503	36.128
-54.142	-22.056	34.513
-54.876	-21.880	33.095
-57.309	-18.667	35.022
-55.968	-20.227	32.983
-55.626	-21.966	31.679
-56.271	-22.403	30.413
-56.956	-22.924	29.166
-57.916	-23.526	27.794
-58.393	-22.054	27.247
-59.440	-20.633	26.789
-60.845	-19.047	26.046
-61.885	-15.381	28.667
-61.954	-16.353	26.732
-61.923	-17.350	24.989
-62.677	-15.749	23.768
-63.537	-14.438	22.129
-64.158	-13.292	20.182
-56.036	-10.013	27.585
-57.882	-9.311	26.279
-59.874	-8.637	25.054
-56.216	-9.161	22.001
-58.936	-9.162	22.719
-61.732	-8.575	23.542
-63.287	-9.290	21.858
-64.124	-10.592	19.994
-64.285	-12.289	17.989
-64.175	-11.285	15.926
-63.578	-9.838	13.781
-62.602	-7.983	12.324
-59.710	-5.956	15.558
-60.946	-5.911	13.749
-61.509	-5.952	11.743
-60.329	-3.854	11.526
-59.251	-1.821	11.599
-17.227	-65.360	61.660
-17.914	-66.905	59.284
-18.943	-65.136	61.085
-20.464	-64.513	60.212
-21.858	-63.357	59.381
-22.682	-60.948	63.580
-23.225	-61.851	61.046
-23.252	-61.995	58.562
-24.418	-60.790	57.598
-25.536	-59.799	56.621
-26.673	-58.889	55.690
-24.413	-52.158	62.620
-26.565	-53.821	64.589
-28.457	-55.539	64.472
-30.616	-52.116	63.922
-30.545	-54.706	63.763
-29.420	-56.851	62.501
-29.401	-57.403	59.817
-28.646	-57.835	57.287
-27.741	-58.046	54.659
-28.540	-57.195	53.499
-29.150	-56.247	52.092
-29.487	-55.157	50.533
-33.345	-54.206	54.340
-31.246	-53.990	51.580
-29.437	-53.973	48.869
-29.303	-52.915	47.040
-29.226	-52.059	44.935
-29.314	-51.302	42.721
-23.126	-36.452	64.230
-23.555	-37.559	60.558
-23.996	-38.759	57.573
-26.636	-36.531	58.963
-25.381	-38.065	56.627
-24.763	-40.001	55.685
-26.014	-41.261	54.848
-27.930	-42.897	55.149
-30.437	-44.486	56.086
-34.818	-35.862	59.331
-32.943	-36.799	56.870
-31.186	-37.946	54.526
-33.425	-39.025	53.554
-31.703	-39.344	53.372
-30.190	-39.660	53.226
-30.283	-41.627	53.515
-31.512	-43.688	55.060
-33.480	-45.613	56.988
-36.340	-46.850	57.042
-37.902	-48.498	55.172
-36.700	-49.943	52.096
-37.245	-46.957	50.653
-35.996	-48.984	49.933
-34.244	-50.173	49.224
-32.135	-49.929	46.307
-30.675	-49.970	43.249
-29.867	-50.613	40.359
-30.599	-50.061	38.518
-31.499	-49.515	37.088
-32.639	-49.119	35.972
-33.111	-46.764	38.878
-33.203	-47.548	36.803
-34.008	-48.829	35.274
-35.463	-48.593	35.096
-36.966	-48.489	35.234
-38.441	-48.434	35.888
-33.119	-40.475	41.559
-34.492	-41.551	40.799
-36.120	-42.987	39.642
-36.045	-40.263	38.991
-36.833	-42.403	39.069
-37.043	-44.254	38.010
-37.926	-45.274	36.732
-39.016	-46.588	36.272
-39.906	-48.319	36.810
-41.411	-48.322	37.799
-42.820	-48.378	38.893
-44.130	-48.372	40.118
-42.885	-44.192	40.533
-43.998	-46.191	40.958
-45.167	-48.121	41.570
-46.401	-47.692	42.864
-47.725	-47.302	43.943
-9.348	-9.136	47.982
-10.626	-11.232	47.073
-9.444	-11.765	48.132
-9.388	-14.376	47.764
-9.319	-17.013	46.990
-5.926	-15.541	49.410
-7.586	-17.719	47.914
-9.572	-19.764	46.643
-10.270	-22.233	47.011
-10.740	-24.354	47.354
-10.855	-26.495	47.433
-4.748	-15.554	57.786
-4.463	-18.921	56.434
-5.772	-21.466	54.953
-7.240	-22.933	57.894
-7.048	-23.261	55.521
-6.750	-23.268	53.156
-7.407	-24.999	50.984
-8.908	-26.855	48.916
-10.775	-28.802	47.538
-10.928	-31.206	47.954
-11.544	-33.408	49.047
-12.404	-35.360	50.451
-7.264	-34.217	52.059
-10.514	-35.712	52.004
-13.223	-37.500	51.581
-14.175	-39.703	52.997
-14.951	-41.381	54.605
-15.135	-42.853	56.128
-10.150	-14.389	71.483
-8.099	-15.820	72.523
-6.304	-18.090	72.524
-8.340	-21.387	74.482
-6.530	-21.011	73.371
-5.296	-20.922	71.478
-4.770	-23.675	69.538
-4.166	-26.212	67.082
-3.722	-28.905	64.440
-8.602	-33.115	68.830
-6.883	-33.103	70.518
-4.896	-32.823	70.753
-4.099	-38.373	69.479
-3.525	-35.551	69.223
-3.339	-32.441	69.442
-2.818	-32.133	67.109
-3.087	-31.998	64.463
-3.903	-31.971	62.097
-4.447	-34.886	60.456
-4.553	-37.514	58.980
-6.789	-39.599	58.026
-7.891	-41.829	62.150
-8.917	-41.213	60.073
-10.139	-40.561	58.197
-13.099	-41.359	58.423
-14.600	-42.646	58.260
-14.420	-44.428	57.499
-13.089	-45.911	58.657
-11.488	-47.307	59.780
-9.493	-48.406	61.081
-11.563	-47.826	64.658
-9.314	-48.826	63.708
-7.148	-49.643	62.342
-6.361	-51.704	62.965
-6.988	-53.819	62.942
-8.211	-55.387	62.364
-14.249	-46.935	73.043
-13.245	-49.192	72.027
-11.937	-51.285	70.609
-15.165	-51.757	69.164
-12.917	-52.750	69.343
-10.733	-53.185	68.586
-10.025	-54.683	66.105
-9.881	-55.530	63.571
-9.937	-56.156	61.497
-11.537	-56.608	60.697
-12.886	-57.162	60.155
-13.965	-58.366	60.381
-15.919	-56.344	60.856
-15.420	-58.034	60.813
-14.585	-59.946	61.115
-15.142	-61.734	62.278
-16.096	-63.590	62.692
-24.726	42.591	28.515
-25.174	43.858	31.829
-23.261	44.490	33.296
-22.525	39.708	33.357
-21.796	42.079	33.312
-21.211	44.647	33.712
-19.673	44.526	34.784
-18.331	44.436	36.447
-16.975	44.371	38.389
-22.609	28.338	34.845
-21.253	30.575	35.127
-19.980	33.162	36.025
-20.798	29.351	39.480
-19.829	32.676	38.173
-18.941	35.880	37.253
-18.169	38.723	38.355
-17.195	41.485	39.424
-15.917	44.150	40.553
-15.050	43.842	42.628
-13.817	43.026	44.404
-12.512	42.019	45.869
-16.973	38.141	48.332
-13.945	39.469	47.704
-11.228	41.053	47.919
-9.925	39.694	50.044
-8.516	37.759	51.572
-7.050	35.408	52.588
-27.742	10.233	51.530
-27.010	11.083	49.539
-25.989	12.277	48.529
-23.097	9.627	50.490
-24.325	12.150	50.364
-25.119	14.115	48.557
-24.480	16.645	49.401
-24.017	19.312	51.172
-23.798	22.054	53.506
-20.876	5.411	58.072
-20.497	8.472	57.204
-20.607	11.571	56.301
-20.702	12.112	60.570
-20.934	13.272	58.134
-21.482	14.752	56.154
-22.222	17.869	56.380
-22.672	21.373	56.079
-22.277	25.148	55.310
-19.670	26.769	54.751
-17.107	27.354	52.972
-14.461	28.546	52.161
-13.556	24.113	56.312
-12.638	27.040	54.308
-12.042	30.091	52.973
-9.900	31.629	54.428
-7.401	32.547	54.550
-5.733	32.130	52.653
-5.347	28.962	52.564
-5.189	25.925	52.715
-5.461	22.939	52.781
-5.397	21.527	58.825
-5.344	20.700	55.807
-6.118	19.890	52.756
-6.993	17.097	52.828
-7.462	14.388	52.799
-7.543	11.955	52.620
-8.331	10.150	66.692
-6.483	10.609	66.022
-5.432	10.599	64.052
-5.180	3.929	64.714
-5.191	7.426	63.400
-5.423	10.213	61.050
-5.987	9.658	57.989
-6.610	9.289	55.159
-7.076	9.122	52.442
-7.326	6.543	52.340
-7.560	4.152	51.639
-7.662	1.622	50.916
-5.942	-0.728	53.924
-6.896	-0.857	51.922
-7.966	-0.987	50.275
-7.897	-3.387	49.418
-8.241	-6.400	48.468
-9.549	-6.517	47.264
-4.066	35.493	-4.366
-3.810	33.662	-2.406
-3.331	35.380	2.332
-2.940	28.059	13.906
