29931 59602
-7.556658 -55.812920 39.653976 
-8.131536 -54.444756 40.429321 
-8.607267 -53.068829 41.174606 
-8.969749 -51.687572 41.910301 
-9.228105 -50.315990 42.662704 
-9.413549 -48.977287 43.458321 
-6.978625 -71.624954 27.367115 
-6.020722 -70.957924 28.332985 
-5.239161 -70.047760 29.308756 
-4.676148 -68.931816 30.274195 
-4.343122 -67.661293 31.218893 
-4.228979 -66.283524 32.145023 
-4.312638 -64.837677 33.061394 
-4.569724 -63.355946 33.976513 
-4.973764 -61.864151 34.893970 
-5.494696 -60.380787 35.810356 
-6.097045 -58.915710 36.715870 
-6.739535 -57.469868 37.597660 
-7.377282 -56.036942 38.445053 
-7.966839 -54.607388 39.254902 
-8.473213 -53.174152 40.034748 
-8.877057 -51.738377 40.802361 
-9.179860 -50.312180 41.581810 
-9.404612 -48.916771 42.397591 
-6.389342 -70.906181 26.962275 
-5.564790 -70.126877 27.937420 
-4.942934 -69.123383 28.917723 
-4.545849 -67.942719 29.884821 
-4.368259 -66.632904 30.833479 
-4.390333 -65.233757 31.768747 
-4.587324 -63.776962 32.698986 
-4.932953 -62.287659 33.630104 
-5.399001 -60.784687 34.562191 
-5.953537 -59.280190 35.488686 
-6.559592 -57.779678 36.398319 
-7.175970 -56.283184 37.279602 
-7.761108 -54.787647 38.126537 
-8.279480 -53.290474 38.943039 
-8.708564 -51.793888 39.743721 
-9.044147 -50.308308 40.550495 
-9.301990 -48.852604 41.386387 
-5.853155 -70.068901 26.599722 
-5.188519 -69.190048 27.585449 
-4.739583 -68.114761 28.570578 
-4.508067 -66.889694 29.542084 
-4.476249 -65.554794 30.499567 
-4.618783 -64.141052 31.449493 
-4.908626 -62.672421 32.398811 
-5.318232 -61.166958 33.350475 
-5.818294 -59.637493 34.301258 
-6.376064 -58.092384 35.242088 
-6.954880 -56.536922 36.161289 
-7.516572 -54.974850 37.050053 
-8.026938 -53.409920 37.907997 
-8.462377 -51.847965 38.745663 
-8.815174 -50.299511 39.582218 
-9.095542 -48.781448 40.439381 
-5.388825 -69.112816 26.289536 
-4.900702 -68.153221 27.285103 
-4.625785 -67.026245 28.276302 
-4.549332 -65.770920 29.256535 
-4.645516 -64.417145 30.228945 
-4.885729 -62.987175 31.200167 
-5.241707 -61.497540 32.175102 
-5.685363 -59.960468 33.153606 
-6.187307 -58.385441 34.129322 
-6.715625 -56.781239 35.091206 
-7.236739 -55.157681 36.028084 
-7.719554 -53.525749 36.934784 
-8.141438 -51.897041 37.816566 
-8.493306 -50.284439 38.688622 
-8.781851 -48.703888 39.570744 
-5.009750 -68.042755 26.039404 
-4.701029 -67.021774 27.044638 
-4.588940 -65.857307 28.045349 
-4.647569 -64.577591 29.040630 
-4.846331 -63.202690 30.035740 
-5.154965 -61.747040 31.036562 
-5.544928 -60.221416 32.045506 
-5.988688 -58.635014 33.059128 
-6.458411 -56.998257 34.067940 
-6.925716 -55.325245 35.059307 
-7.364134 -53.633690 36.023335 
-7.753906 -51.942127 36.958908 
-8.086579 -50.267773 37.875633 
-8.367159 -48.627228 38.789982 
-4.719832 -66.865974 25.856657 
-4.579049 -65.798180 26.873892 
-4.607638 -64.602264 27.890316 
-4.773077 -63.295788 28.909224 
-5.042349 -61.890629 29.936733 
-5.384857 -60.395588 30.977217 
-5.773087 -58.818752 32.030029 
-6.181871 -57.170616 33.087917 
-6.587717 -55.467384 34.138073 
-6.969748 -53.731533 35.166740 
-7.312713 -51.988056 36.166061 
-7.610502 -50.259609 37.138550 
-7.868005 -48.565041 38.095627 
-4.511688 -65.589302 25.749634 
-4.514953 -64.481781 26.784460 
-4.653258 -63.252834 27.825470 
-4.890688 -61.911606 28.878551 
-5.193615 -60.464649 29.949507 
-5.532778 -58.918510 31.040197 
-5.883811 -57.282845 32.145973 
-6.226911 -55.573936 33.255089 
-6.546782 -53.816200 34.351559 
-6.833714 -52.038914 35.421558 
-7.085362 -50.269810 36.459850 
-7.307832 -48.531086 37.471188 
-4.367589 -64.217880 25.727486 
-4.481848 -63.070915 26.788265 
-4.692800 -61.803047 27.864424 
-4.963550 -60.418488 28.962770 
-5.261943 -58.922054 30.087332 
-5.562569 -57.322063 31.236109 
-5.847421 -55.633518 32.399372 
-6.105643 -53.880085 33.560837 
-6.333110 -52.092163 34.702656 
-6.532170 -50.300621 35.812489 
-6.711366 -48.531128 36.887566 
-4.262323 -62.756142 25.798277 
-4.449100 -61.566681 26.894520 
-4.693009 -60.254635 28.015957 
-4.958663 -58.822941 29.168404 
-5.218203 -57.278214 30.352402 
-5.453317 -55.633423 31.560795 
-5.655587 -53.909740 32.778648 
-5.825338 -52.135742 33.986607 
-5.969709 -50.342697 35.167240 
-6.100702 -48.558601 36.310631 
-4.167118 -61.210102 25.966152 
-4.386611 -59.976139 27.106096 
-4.625585 -58.619350 28.279654 
-4.853106 -57.144268 29.489689 
-5.048775 -55.561337 30.731834 
-5.204218 -53.888420 31.993574 
-5.322173 -52.150555 33.256237 
-5.413652 -50.376923 34.499969 
-5.494475 -48.595856 35.709461 
-4.054161 -59.589260 26.228844 
-4.269631 -58.312786 27.416981 
-4.472236 -56.916500 28.643902 
-4.638429 -55.407772 29.908020 
-4.757749 -53.800762 31.199705 
-4.832864 -52.116352 32.502316 
-4.876814 -50.380257 33.795910 
-4.908683 -48.619385 35.062260 
-3.901144 -57.906860 26.576693 
-4.083016 -56.594227 27.812231 
-4.227839 -55.167469 29.087431 
-4.321580 -53.636402 30.395662 
-4.364531 -52.017483 31.722836 
-4.369430 -50.332657 33.050243 
-4.357097 -48.606510 34.358875 
-3.695086 -56.178703 26.993572 
-3.823766 -54.838814 28.270275 
-3.900898 -53.390808 29.583147 
-3.922628 -51.845852 30.920742 
-3.899064 -50.221920 32.265915 
-3.850703 -48.541359 33.599945 
-3.434322 -54.421528 27.459188 
-3.501141 -53.063198 28.766188 
-3.511403 -51.600060 30.101917 
-3.470637 -50.044788 31.450613 
-3.396824 -48.417698 32.793690 
-3.128330 -52.652149 27.951683 
-3.134516 -51.281429 29.274435 
-3.086933 -49.804443 30.614565 
-2.999015 -48.238167 31.952539 
-2.795413 -50.887390 28.449577 
-2.749431 -49.505398 29.769974 
-2.657991 -48.011013 31.091177 
-2.458876 -49.144890 28.932417 
-2.373041 -47.745392 30.226366 
-2.142718 -47.443264 29.378582 
-24.779083 -96.012085 20.104040 
-25.716993 -95.209877 20.111425 
-26.643124 -94.350182 20.199053 
-27.546492 -93.481140 20.411331 
-28.427994 -92.644394 20.792992 
-29.286470 -91.877289 21.386103 
-30.107626 -91.212181 22.223181 
-30.858002 -90.671005 23.314354 
-31.493601 -90.255295 24.635714 
-31.982800 -89.940628 26.135916 
-32.321213 -89.684586 27.758657 
-32.527458 -89.440460 29.457647 
-32.632362 -89.166611 31.196920 
-32.671387 -88.830444 32.945656 
-32.680798 -88.409355 34.674015 
-32.695740 -87.890160 36.351074 
-32.748978 -87.268013 37.944466 
-32.869694 -86.545143 39.420933 
-33.082119 -85.730171 40.747505 
-33.403927 -84.837944 41.893299 
-33.844543 -83.889633 42.832455 
-34.403801 -82.911621 43.548599 
-35.071678 -81.931816 44.039467 
-35.829842 -80.974174 44.319019 
-36.654587 -80.054283 44.415390 
-37.519836 -79.178864 44.366180 
-38.399052 -78.348541 44.214230 
-39.265968 -77.562141 44.005650 
-40.095448 -76.820656 43.789467 
-40.866058 -76.130066 43.616390 
-41.565365 -75.502396 43.533375 
-42.195545 -74.954865 43.572056 
-42.774193 -74.505165 43.735466 
-43.325672 -74.161171 43.997761 
-43.868576 -73.912827 44.324104 
-44.411587 -73.734238 44.689426 
-44.957523 -73.590187 45.081345 
-45.507355 -73.441719 45.494347 
-46.061012 -73.250122 45.923618 
-46.616428 -72.980843 46.361000 
-47.168907 -72.607933 46.793713 
-47.712025 -72.117210 47.206261 
-48.239632 -71.506477 47.584641 
-48.747536 -70.782509 47.920414 
-49.234013 -69.957008 48.212482 
-49.699371 -69.043739 48.466293 
-50.145412 -68.057487 48.691460 
-50.575024 -67.014114 48.898815 
-50.991955 -65.930672 49.097343 
-51.400341 -64.824966 49.291512 
-51.804028 -63.713928 49.479458 
-52.205654 -62.611641 49.652588 
-52.605953 -61.527687 49.796524 
-53.003345 -60.467300 49.893066 
-53.393787 -59.434490 49.923069 
-53.769318 -58.440716 49.870853 
-24.766403 -95.172470 21.231724 
-25.715424 -94.307022 21.324471 
-26.630983 -93.426758 21.493261 
-27.514778 -92.562157 21.787952 
-28.370085 -91.745758 22.251093 
-29.194134 -91.008011 22.919111 
-29.969809 -90.374252 23.817072 
-30.662310 -89.858269 24.947683 
-31.230520 -89.453102 26.282927 
-31.649422 -89.128677 27.772823 
-31.921194 -88.841751 29.365662 
-32.068817 -88.548607 31.018782 
-32.125698 -88.212601 32.697304 
-32.129025 -87.806641 34.369568 
-32.116459 -87.313423 36.004032 
-32.124344 -86.724541 37.568138 
-32.186249 -86.039352 39.028500 
-32.331291 -85.264259 40.351833 
-32.582027 -84.412636 41.506733 
-32.952042 -83.504967 42.466740 
-33.443909 -82.567726 43.215130 
-34.048763 -81.629341 43.750153 
-34.748276 -80.713806 44.087288 
-35.518448 -79.835777 44.256618 
-36.333244 -78.999992 44.297142 
-37.166645 -78.204659 44.251804 
-37.993118 -77.446289 44.165234 
-38.787682 -76.724655 44.083553 
-39.527840 -76.046783 44.053394 
-40.199364 -75.428871 44.115829 
-40.804039 -74.893074 44.293476 
-41.360607 -74.457703 44.579781 
-41.894138 -74.126884 44.945496 
-42.423386 -73.888702 45.357609 
-42.957420 -73.719360 45.792065 
-43.499229 -73.587723 46.235661 
-44.049774 -73.458481 46.682182 
-44.609421 -73.295181 47.127365 
-45.177288 -73.063614 47.564919 
-45.750141 -72.736137 47.984497 
-46.322407 -72.295700 48.372818 
-46.887676 -71.737350 48.717472 
-47.440552 -71.066010 49.011505 
-47.977505 -70.292274 49.255886 
-48.496708 -69.428978 49.458942 
-48.997459 -68.489777 49.633892 
-49.479916 -67.489204 49.795471 
-49.945190 -66.443047 49.956371 
-50.395508 -65.368149 50.123924 
-50.834087 -64.280907 50.297680 
-51.264687 -63.195103 50.468410 
-51.690933 -62.119652 50.618866 
-52.115955 -61.057716 50.725697 
-52.542889 -60.007320 50.761688 
-52.977829 -58.962414 50.696064 
-24.704769 -94.337563 22.450806 
-25.663090 -93.434540 22.620527 
-26.572081 -92.540337 22.867048 
-27.437162 -91.678947 23.237791 
-28.262804 -90.876534 23.770624 
-29.045837 -90.157379 24.495556 
-29.768913 -89.540283 25.430653 
-30.399340 -89.031967 26.573343 
-30.901436 -88.619171 27.894899 
-31.256834 -88.268684 29.349277 
-31.472662 -87.938087 30.889446 
-31.574665 -87.587227 32.475018 
-31.597788 -87.184265 34.070778 
-31.580278 -86.707237 35.643414 
-31.560623 -86.143776 37.159641 
-31.575647 -85.490097 38.585930 
-31.658705 -84.750237 39.889183 
-31.837362 -83.935822 41.038223 
-32.130531 -83.066322 42.006561 
-32.545582 -82.167892 42.777065 
-33.076962 -81.269417 43.347507 
-33.707859 -80.395439 43.733501 
-34.414459 -79.560448 43.966068 
-35.170444 -78.767914 44.085480 
-35.949734 -78.014053 44.135536 
-36.727242 -77.293228 44.160736 
-37.478924 -76.603722 44.205559 
-38.183212 -75.952980 44.312866 
-38.826588 -75.360237 44.516544 
-39.411137 -74.850288 44.828506 
-39.954254 -74.439026 45.233894 
-40.477734 -74.125633 45.703243 
-40.998009 -73.896210 46.207043 
-41.524120 -73.729042 46.722462 
-42.060020 -73.597107 47.234512 
-42.607445 -73.469597 47.734333 
-43.167412 -73.313629 48.215954 
-43.740013 -73.097061 48.672855 
-44.323383 -72.792488 49.095535 
-44.913193 -72.381744 49.471832 
-45.503525 -71.858337 49.790367 
-46.088593 -71.226028 50.045502 
-46.663883 -70.494606 50.240536 
-47.226109 -69.675728 50.387375 
-47.772758 -68.781357 50.503757 
-48.301819 -67.823883 50.609436 
-48.812107 -66.816925 50.722084 
-49.303947 -65.775536 50.853344 
-49.779705 -64.714928 51.005615 
-50.243885 -63.648079 51.170296 
-50.702618 -62.582954 51.328045 
-51.163097 -61.520756 51.450626 
-51.633842 -60.456017 51.503269 
-52.127117 -59.377640 51.445553 
-24.644535 -93.502007 23.761808 
-25.598177 -92.581230 24.001127 
-26.488871 -91.680725 24.319258 
-27.323292 -90.822479 24.757088 
-28.106485 -90.028572 25.346230 
-28.835842 -89.318336 26.109882 
-29.496025 -88.704918 27.059746 
-30.059177 -88.189217 28.189920 
-30.496426 -87.753731 29.473608 
-30.795063 -87.364189 30.870043 
-30.965141 -86.980148 32.336342 
-31.033564 -86.565285 33.833160 
-31.035828 -86.092400 35.324150 
-31.010597 -85.544434 36.774281 
-30.996586 -84.913925 38.149239 
-31.030287 -84.202156 39.415859 
-31.143608 -83.418808 40.543411 
-31.360863 -82.582001 41.505894 
-31.695314 -81.717377 42.286182 
-32.146683 -80.854118 42.881393 
-32.701645 -80.017693 43.306385 
-33.337830 -79.223152 43.592003 
-34.028980 -78.473633 43.779053 
-34.748653 -77.764153 43.912186 
-35.471893 -77.087608 44.036369 
-36.175793 -76.441284 44.195316 
-36.841183 -75.832954 44.428387 
-37.457329 -75.283081 44.761513 
-38.027077 -74.815262 45.195950 
-38.564259 -74.440056 45.711018 
-39.084824 -74.151413 46.278961 
-39.601276 -73.933784 46.874149 
-40.121876 -73.767029 47.475235 
-40.651608 -73.627716 48.065552 
-41.193550 -73.489357 48.632839 
-41.749771 -73.323204 49.167770 
-42.321358 -73.100410 49.661530 
-42.907677 -72.795555 50.103512 
-43.505730 -72.391220 50.481052 
-44.110584 -71.881157 50.782642 
-44.716774 -71.269485 51.003407 
-45.319481 -70.566010 51.148991 
-45.914665 -69.781509 51.235363 
-46.498592 -68.925835 51.285538 
-47.067627 -68.008446 51.325176 
-47.618626 -67.039902 51.378063 
-48.150040 -66.032753 51.461555 
-48.663105 -65.000641 51.582569 
-49.162636 -63.955807 51.734863 
-49.656872 -62.905647 51.898537 
-50.156559 -61.850376 52.041668 
-50.674145 -60.782990 52.123234 
-51.224152 -59.691700 52.096127 
-24.595823 -92.672333 25.162958 
-25.526283 -91.744553 25.465778 
-26.380945 -90.842216 25.848053 
-27.167740 -89.986412 26.343006 
-27.892611 -89.196152 26.975321 
-28.554501 -88.486473 27.761332 
-29.141756 -87.865402 28.707022 
-29.633049 -87.329117 29.804476 
-30.006714 -86.857719 31.030098 
-30.254461 -86.417686 32.348667 
-30.387501 -85.971565 33.720890 
-30.432512 -85.487122 35.107941 
-30.424715 -84.941849 36.472420 
-30.402571 -84.323700 37.778385 
-30.404318 -83.630547 38.991924 
-30.465149 -82.869720 40.082306 
-30.614155 -82.057793 41.023994 
-30.870623 -81.219673 41.800213 
-31.240652 -80.384750 42.407711 
-31.716188 -79.579437 42.860371 
-32.277962 -78.819878 43.188122 
-32.900757 -78.109787 43.431431 
-33.558113 -77.444038 43.635216 
-34.225140 -76.815216 43.844700 
-34.880230 -76.220634 44.102776 
-35.507301 -75.668587 44.444958 
-36.099243 -75.178482 44.889072 
-36.659214 -74.768547 45.427822 
-37.196205 -74.441887 46.037888 
-37.719559 -74.187599 46.694080 
-38.237232 -73.988579 47.374146 
-38.755898 -73.825623 48.058258 
-39.281036 -73.677811 48.728653 
-39.817047 -73.522202 49.369907 
-40.367352 -73.333992 49.968639 
-40.934238 -73.088074 50.512203 
-41.518341 -72.762199 50.986870 
-42.118065 -72.341461 51.377548 
-42.729763 -71.821983 51.671062 
-43.348774 -71.210175 51.862434 
-43.970486 -70.517296 51.959591 
-44.590546 -69.753830 51.982914 
-45.204540 -68.927345 51.961121 
-45.807713 -68.043770 51.926228 
-46.395420 -67.109772 51.908733 
-46.964306 -66.134605 51.932781 
-47.514091 -65.130058 52.011398 
-48.049175 -64.108002 52.142731 
-48.579174 -63.076298 52.308517 
-49.117966 -62.035309 52.475185 
-49.681618 -60.977367 52.597122 
-50.286369 -59.890038 52.621342 
-24.550535 -91.853493 26.649977 
-25.437460 -90.923546 27.011393 
-26.237425 -90.021271 27.450695 
-26.959932 -89.166573 27.993622 
-27.612106 -88.375481 28.657953 
-28.194942 -87.658653 29.453417 
-28.701170 -87.019287 30.380812 
-29.116549 -86.449783 31.430635 
-29.426628 -85.929535 32.582241 
-29.626894 -85.427483 33.805443 
-29.728762 -84.910294 35.064358 
-29.757792 -84.350456 36.321194 
-29.748158 -83.730476 37.538624 
-29.737446 -83.043907 38.681458 
-29.762619 -82.294998 39.718296 
-29.856487 -81.498497 40.623585 
-30.043772 -80.678345 41.380795 
-30.337112 -79.863785 41.986633 
-30.734747 -79.081917 42.454193 
-31.222004 -78.350090 42.812172 
-31.776077 -77.673271 43.100021 
-32.371372 -77.047455 43.362045 
-32.983562 -76.466347 43.642895 
-33.592606 -75.928642 43.983578 
-34.185516 -75.443153 44.414677 
-34.758080 -75.025757 44.946449 
-35.312664 -74.686272 45.566601 
-35.853283 -74.419556 46.252243 
-36.383389 -74.210083 46.981174 
-36.906620 -74.039001 47.733814 
-37.427498 -73.887161 48.491631 
-37.951176 -73.735001 49.236301 
-38.482864 -73.561935 49.949905 
-39.027256 -73.346298 50.615131 
-39.588024 -73.066513 51.214657 
-40.167263 -72.704025 51.730057 
-40.765003 -72.247871 52.141903 
-41.379139 -71.698570 52.433762 
-42.006096 -71.066978 52.599773 
-42.641640 -70.367348 52.650135 
-43.281292 -69.610489 52.609825 
-43.920231 -68.801765 52.513210 
-44.553146 -67.943222 52.398438 
-45.174484 -67.037025 52.302574 
-45.779465 -66.088486 52.256950 
-46.366009 -65.107109 52.281883 
-46.937096 -64.104706 52.381908 
-47.502338 -63.090755 52.542889 
-48.077656 -62.067493 52.732304 
-48.682686 -61.027740 52.902317 
-49.336712 -59.957771 52.994991 
-24.492397 -91.047081 28.217493 
-25.317209 -90.116943 28.633759 
-26.046875 -89.215218 29.124298 
-26.692255 -88.359741 29.707932 
-27.261391 -87.562927 30.395954 
-27.757053 -86.830795 31.192059 
-28.176086 -86.161896 32.092258 
-28.511024 -85.545898 33.085022 
-28.754654 -84.962921 34.151272 
-28.906784 -84.386177 35.264637 
-28.979355 -83.788017 36.392895 
-28.996572 -83.146790 37.500782 
-28.990986 -82.451126 38.553196 
-28.998552 -81.701431 39.518196 
-29.053993 -80.909912 40.369862 
-29.186205 -80.098999 41.091709 
-29.413603 -79.297119 41.680473 
-29.740721 -78.531158 42.148674 
-30.158360 -77.819229 42.523743 
-30.647436 -77.168030 42.843563 
-31.184475 -76.575867 43.150932 
-31.746607 -76.039169 43.488602 
-32.315651 -75.559174 43.893997 
-32.881023 -75.144821 44.391499 
-33.439713 -74.806580 44.985111 
-33.992203 -74.544785 45.661076 
-34.538353 -74.346352 46.399349 
-35.077278 -74.191177 47.181103 
-35.609100 -74.058105 47.989021 
-36.136028 -73.926987 48.805649 
-36.662163 -73.778366 49.612389 
-37.192764 -73.592743 50.389477 
-37.733341 -73.350464 51.116108 
-38.288887 -73.032791 51.770134 
-38.863159 -72.624924 52.327438 
-39.458088 -72.120796 52.762833 
-40.073376 -71.527039 53.055481 
-40.706608 -70.860741 53.198307 
-41.353844 -70.140205 53.203869 
-42.010380 -69.376999 53.101578 
-42.671169 -68.574471 52.930775 
-43.330841 -67.730896 52.734734 
-43.983704 -66.843903 52.556297 
-44.624264 -65.914467 52.433578 
-45.248817 -64.949272 52.394737 
-45.858067 -63.959877 52.452206 
-46.459778 -62.958206 52.598343 
-47.069733 -61.950058 52.804516 
-47.709850 -60.930798 53.023624 
-48.403412 -59.886276 53.195145 
-24.405344 -90.252434 29.859789 
-25.154499 -89.322990 30.328333 
-25.803717 -88.421310 30.865774 
-26.364368 -87.562019 31.484718 
-26.844587 -86.753159 32.190632 
-27.248175 -85.996002 32.981846 
-27.575281 -85.285034 33.850018 
-27.824457 -84.608284 34.780884 
-27.995838 -83.948090 35.755024 
-28.095036 -83.283607 36.748161 
-28.136375 -82.595085 37.731834 
-28.143612 -81.869064 38.675304 
-28.147509 -81.102455 39.548820 
-28.181374 -80.304169 40.327473 
-28.275705 -79.493965 40.995449 
-28.452703 -78.697807 41.549835 
-28.722076 -77.940887 42.002754 
-29.080101 -77.241165 42.380188 
-29.512383 -76.607147 42.717960 
-29.998833 -76.040474 43.056442 
-30.518963 -75.541603 43.435017 
-31.056488 -75.115013 43.885788 
-31.601980 -74.769218 44.426250 
-32.151836 -74.508644 45.055824 
-32.704182 -74.325005 45.761730 
-33.256058 -74.198296 46.528099 
-33.803986 -74.103889 47.339851 
-34.345726 -74.017555 48.182014 
-34.881424 -73.917061 49.038250 
-35.413727 -73.781738 49.889908 
-35.947216 -73.591858 50.715824 
-36.487598 -73.328568 51.492180 
-37.040825 -72.975143 52.192139 
-37.612282 -72.520309 52.785492 
-38.205933 -71.963516 53.240685 
-38.823372 -71.318710 53.532249 
-39.463219 -70.609947 53.652172 
-40.121651 -69.859810 53.615349 
-40.793732 -69.080750 53.454826 
-41.474407 -68.274483 53.213581 
-42.158726 -67.436172 52.938629 
-42.841587 -66.559372 52.677261 
-43.517670 -65.640862 52.473484 
-44.182281 -64.684052 52.363083 
-44.833622 -63.699711 52.367222 
-45.476017 -62.702080 52.486576 
-46.122414 -61.701466 52.698742 
-46.794128 -60.697762 52.960159 
-47.517113 -59.678829 53.210880 
-24.279461 -89.467690 31.570812 
-24.945866 -88.539124 32.089710 
-25.510216 -87.635567 32.670467 
-25.983192 -86.767448 33.320045 
-26.372173 -85.938148 34.038696 
-26.681452 -85.144615 34.820133 
-26.913946 -84.378601 35.652073 
-27.073643 -83.628036 36.517208 
-27.168026 -82.879143 37.394421 
-27.209969 -82.118805 38.260086 
-27.218681 -81.337746 39.089413 
-27.219309 -80.533546 39.858452 
-27.240643 -79.713158 40.547123 
-27.310915 -78.892525 41.143124 
-27.452675 -78.093224 41.645485 
-27.678505 -77.336906 42.066410 
-27.989298 -76.640366 42.430309 
-28.375690 -76.013672 42.770481 
-28.821835 -75.462227 43.124023 
-29.310165 -74.991005 43.525856 
-29.825817 -74.607780 44.001740 
-30.359043 -74.320396 44.562447 
-30.904337 -74.128006 45.204227 
-31.457563 -74.015656 45.916206 
-32.014240 -73.957909 46.686813 
-32.569878 -73.925827 47.504944 
-33.121120 -73.891586 48.358349 
-33.666718 -73.829796 49.232189 
-34.207844 -73.717346 50.108147 
-34.747993 -73.532959 50.964062 
-35.292419 -73.257416 51.773468 
-35.847504 -72.875198 52.505051 
-36.419872 -72.378334 53.122669 
-37.015244 -71.772163 53.588684 
-37.636757 -71.078117 53.873791 
-38.283840 -70.326851 53.969662 
-38.952843 -69.544563 53.893089 
-39.638897 -68.744545 53.679317 
-40.337368 -67.927605 53.373367 
-41.044186 -67.086739 53.024429 
-41.755421 -66.212395 52.682869 
-42.466686 -65.297615 52.397358 
-43.173145 -64.342468 52.210518 
-43.870892 -63.356182 52.152321 
-44.560101 -62.354500 52.232811 
-45.248707 -61.352135 52.437523 
-45.954170 -60.354507 52.728451 
-46.701721 -59.353783 53.048759 
-24.112915 -88.690178 33.343193 
-24.695116 -87.761314 33.910110 
-25.174307 -86.851837 34.529713 
-25.559622 -85.967598 35.203648 
-25.857531 -85.107903 35.927361 
-26.073208 -84.266983 36.690346 
-26.212847 -83.435951 37.476784 
-26.286098 -82.605217 38.266716 
-26.307720 -81.766907 39.037941 
-26.297857 -80.917175 39.768444 
-26.280876 -80.057838 40.439053 
-26.283052 -79.197029 41.035900 
-26.329544 -78.348679 41.552681 
-26.441023 -77.530418 41.992538 
-26.630682 -76.760147 42.369038 
-26.902544 -76.053017 42.705627 
-27.251762 -75.420166 43.033092 
-27.666805 -74.870178 43.385086 
-28.132912 -74.412086 43.791813 
-28.635708 -74.056465 44.272942 
-29.163662 -73.810593 44.833523 
-29.708399 -73.669975 45.467400 
-30.263624 -73.615219 46.165257 
-30.824150 -73.616989 46.919113 
-31.385614 -73.642708 47.721550 
-31.944735 -73.660782 48.563404 
-32.499771 -73.641998 49.431915 
-33.050911 -73.559753 50.309731 
-33.600483 -73.390076 51.174206 
-34.152874 -73.112305 51.996647 
-34.714233 -72.711403 52.741642 
-35.291695 -72.182526 53.367661 
-35.891899 -71.536774 53.832077 
-36.518871 -70.802353 54.103153 
-37.172642 -70.015015 54.172722 
-37.850132 -69.203552 54.058529 
-38.547211 -68.382164 53.796463 
-39.260242 -67.551514 53.431973 
-39.986477 -66.703484 53.015106 
-40.723537 -65.826462 52.597980 
-41.468502 -64.910561 52.232639 
-42.217129 -63.952667 51.967331 
-42.964191 -62.959839 51.840202 
-43.705902 -61.948227 51.870937 
-44.444115 -60.936100 52.054207 
-45.189991 -59.934433 52.358852 
-45.964493 -58.940872 52.732655 
-23.909729 -87.915878 35.166725 
-24.409426 -86.983444 35.777180 
-24.804964 -86.061691 36.428047 
-25.104013 -85.152687 37.115692 
-25.313171 -84.253471 37.830853 
-25.440002 -83.358055 38.559170 
-25.495338 -82.459923 39.282333 
-25.494951 -81.554390 39.979992 
-25.459810 -80.640694 40.632545 
-25.414761 -79.723160 41.224072 
-25.386021 -78.811371 41.744869 
-25.398264 -77.919228 42.193047 
-25.471952 -77.063080 42.575253 
-25.621260 -76.259407 42.906734 
-25.852922 -75.522850 43.210621 
-26.166092 -74.865654 43.515781 
-26.553303 -74.298904 43.852962 
-27.002253 -73.834740 44.248554 
-27.498201 -73.485802 44.717720 
-28.026518 -73.259277 45.261444 
-28.574886 -73.148727 45.871719 
-29.134357 -73.132263 46.539921 
-29.699053 -73.178047 47.260384 
-30.265221 -73.250717 48.028667 
-30.830490 -73.315254 48.838638 
-31.393614 -73.338501 49.680111 
-31.954582 -73.289825 50.537415 
-32.514931 -73.141640 51.388149 
-33.078030 -72.871010 52.202038 
-33.649151 -72.462753 52.940250 
-34.234917 -71.914749 53.556858 
-34.841778 -71.243217 54.005775 
-35.473858 -70.481590 54.254112 
-36.131840 -69.668938 54.293945 
-36.813820 -68.835686 54.142929 
-37.517181 -67.996948 53.836246 
-38.239891 -67.153854 53.418579 
-38.980896 -66.298073 52.939682 
-39.739635 -65.416840 52.452305 
-40.514938 -64.498123 52.010590 
-41.303719 -63.535995 51.667030 
-42.100262 -62.534973 51.466724 
-42.897602 -61.510540 51.438606 
-43.691540 -60.483372 51.587029 
-44.485676 -59.469467 51.888817 
-45.294205 -58.472355 52.297203 
-23.674761 -87.138786 37.026505 
-24.094067 -86.197220 37.672005 
-24.407494 -85.255569 38.341431 
-24.622543 -84.314072 39.025959 
-24.747877 -83.370033 39.712238 
-24.795265 -82.419968 40.383766 
-24.780977 -81.461777 41.022915 
-24.725964 -80.496284 41.613590 
-24.654696 -79.528458 42.143700 
-24.593042 -78.567657 42.607082 
-24.565849 -77.627151 43.004555 
-24.594675 -76.722862 43.344307 
-24.696041 -75.871384 43.641800 
-24.880316 -75.088417 43.918938 
-25.151289 -74.388130 44.202351 
-25.506161 -73.784294 44.519947 
-25.935804 -73.291664 44.895279 
-26.425457 -72.924919 45.341015 
-26.956964 -72.692032 45.856289 
-27.512909 -72.586258 46.432148 
-28.080362 -72.584770 47.060070 
-28.651772 -72.654320 47.735535 
-29.223604 -72.757553 48.456108 
-29.794640 -72.856682 49.218174 
-30.364820 -72.915077 50.014236 
-30.934809 -72.898048 50.830830 
-31.506002 -72.774132 51.646652 
-32.080894 -72.517433 52.430824 
-32.663372 -72.112038 53.142143 
-33.258522 -71.557877 53.731609 
-33.871513 -70.875092 54.151134 
-34.506065 -70.100655 54.367489 
-35.163696 -69.275528 54.372791 
-35.844337 -68.430939 54.183861 
-36.547508 -67.582748 53.834309 
-37.273293 -66.732742 53.367214 
-38.022636 -65.872871 52.831165 
-38.796947 -64.989861 52.278561 
-39.596981 -64.070198 51.764458 
-40.421135 -63.105526 51.344177 
-41.263977 -62.097668 51.068279 
-42.116371 -61.060562 50.973934 
-42.968819 -60.016140 51.075211 
-43.817207 -58.984688 51.357727 
-44.667595 -57.975590 51.781029 
-23.408422 -86.351013 38.901520 
-23.748262 -85.393486 39.568245 
-23.980877 -84.425110 40.237835 
-24.115692 -83.446716 40.897392 
-24.165333 -82.458176 41.531895 
-24.146591 -81.459915 42.126461 
-24.080372 -80.454262 42.668804 
-23.990582 -79.446304 43.151085 
-23.902363 -78.444450 43.571011 
-23.840223 -77.460541 43.932137 
-23.826344 -76.509239 44.243816 
-23.879230 -75.606781 44.520947 
-24.012758 -74.769760 44.783302 
-24.235558 -74.014320 45.054142 
-24.550346 -73.356873 45.357487 
-24.952869 -72.814919 45.713585 
-25.430656 -72.405647 46.133366 
-25.963705 -72.139374 46.615761 
-26.529402 -72.011147 47.152145 
-27.109241 -71.998802 47.734337 
-27.692127 -72.068619 48.358376 
-28.273401 -72.181862 49.023026 
-28.852392 -72.298706 49.726547 
-29.430349 -72.379715 50.463776 
-30.009151 -72.386772 51.223660 
-30.590740 -72.284653 51.986691 
-31.177078 -72.044312 52.722530 
-31.770439 -71.648460 53.388996 
-32.373615 -71.098091 53.935417 
-32.989746 -70.416100 54.312702 
-33.621895 -69.641876 54.487637 
-34.272755 -68.817253 54.452301 
-34.944595 -67.973564 54.222431 
-35.639580 -67.126724 53.829708 
-36.360226 -66.278923 53.315071 
-37.109680 -65.422462 52.725254 
-37.891430 -64.543900 52.111469 
-38.708218 -63.628662 51.528614 
-39.560177 -62.666302 51.033524 
-40.442719 -61.655895 50.680668 
-41.345589 -60.609173 50.514111 
-42.255116 -59.548264 50.557114 
-43.160049 -58.496937 50.804531 
-44.057907 -57.470306 51.223068 
-23.103588 -85.544060 40.764236 
-23.363991 -84.564400 41.433250 
-23.518141 -83.565392 42.081009 
-23.579306 -82.550423 42.693459 
-23.564899 -81.522812 43.257946 
-23.496071 -80.486694 43.765503 
-23.396507 -79.447655 44.212276 
-23.290836 -78.413422 44.599838 
-23.203106 -77.394295 44.934803 
-23.155518 -76.403191 45.228252 
-23.167536 -75.455101 45.495068 
-23.255268 -74.566261 45.753246 
-23.430946 -73.753670 46.022594 
-23.702168 -73.035278 46.322601 
-24.070246 -72.430565 46.669064 
-24.527573 -71.959167 47.070080 
-25.055996 -71.634987 47.524075 
-25.630114 -71.457344 48.023235 
-26.225557 -71.407211 48.560242 
-26.825689 -71.451790 49.131886 
-27.422625 -71.551765 49.737907 
-28.014784 -71.665756 50.377972 
-28.604004 -71.752251 51.048813 
-29.193342 -71.770454 51.741638 
-29.785643 -71.681999 52.439198 
-30.382744 -71.454788 53.112701 
-30.985369 -71.069580 53.720379 
-31.593676 -70.527588 54.211052 
-32.208351 -69.853767 54.535118 
-32.831738 -69.089577 54.659561 
-33.467999 -68.277206 54.576683 
-34.122234 -67.446945 54.301418 
-34.799641 -66.613708 53.863522 
-35.505424 -65.779434 53.301476 
-36.245033 -64.936531 52.659645 
-37.024048 -64.071518 51.987350 
-37.847260 -63.169022 51.338428 
-38.716694 -62.216690 50.770031 
-39.629093 -61.210762 50.339130 
-40.574001 -60.160255 50.095230 
-41.534824 -59.086506 50.069836 
-42.494156 -58.015884 50.267094 
-43.441254 -56.969013 50.661491 
-22.746103 -84.711082 42.581882 
-22.928301 -83.705849 43.231670 
-23.009548 -82.676544 43.836662 
-23.007790 -81.629707 44.385780 
-22.944635 -80.571777 44.872620 
-22.843960 -79.509567 45.296543 
-22.730309 -78.450737 45.662529 
-22.627518 -77.404602 45.980209 
-22.557707 -76.382416 46.262760 
-22.540707 -75.397522 46.525841 
-22.593681 -74.464951 46.786652 
-22.730890 -73.601173 47.062576 
-22.963064 -72.824196 47.369308 
-23.295883 -72.153816 47.718159 
-23.727119 -71.610703 48.113361 
-24.243513 -71.211746 48.551247 
-24.821180 -70.961937 49.023533 
-25.432377 -70.848236 49.523247 
-26.054445 -70.841492 50.047974 
-26.674225 -70.903221 50.598614 
-27.287119 -70.991341 51.176289 
-27.894056 -71.062798 51.779442 
-28.498491 -71.074829 52.401360 
-29.103994 -70.986618 53.027164 
-29.712500 -70.763321 53.630371 
-30.323423 -70.383560 54.170654 
-30.934235 -69.848396 54.596985 
-31.542902 -69.185013 54.859432 
-32.150963 -68.437103 54.925522 
-32.764355 -67.646408 54.788525 
-33.391445 -66.840645 54.463146 
-34.040844 -66.032501 53.977299 
-34.720676 -65.222878 53.366840 
-35.438778 -64.404106 52.673409 
-36.202831 -63.562778 51.943920 
-37.019665 -62.682896 51.230423 
-37.893387 -61.750317 50.589382 
-38.822525 -60.758263 50.078987 
-39.797287 -59.712418 49.752804 
-40.799370 -58.632286 49.649525 
-41.806412 -57.545837 49.782234 
-42.800049 -56.478764 50.133614 
-22.319014 -83.849503 44.319771 
-22.428381 -82.819191 44.930756 
-22.447540 -81.763954 45.478672 
-22.398516 -80.693085 45.958927 
-22.305567 -79.615211 46.373268 
-22.193487 -78.538864 46.729321 
-22.086245 -77.473099 47.039268 
-22.006083 -76.428123 47.318291 
-21.973061 -75.415771 47.583187 
-22.004860 -74.449532 47.851147 
-22.116674 -73.544594 48.138306 
-22.320791 -72.717827 48.457920 
-22.625397 -71.987923 48.818062 
-23.032164 -71.374626 49.219627 
-23.533087 -70.895607 49.656200 
-24.108986 -70.560158 50.117435 
-24.733030 -70.362556 50.594822 
-25.378834 -70.280365 51.085438 
-26.027458 -70.278816 51.590908 
-26.669399 -70.316696 52.113834 
-27.302694 -70.350388 52.654545 
-27.929722 -70.335785 53.208420 
-28.554005 -70.230263 53.763016 
-29.177399 -69.996834 54.294437 
-29.798126 -69.612328 54.764217 
-30.410933 -69.078148 55.121742 
-31.010815 -68.424370 55.317085 
-31.598484 -67.696396 55.319336 
-32.181919 -66.933540 55.123760 
-32.773014 -66.159409 54.745167 
-33.384029 -65.383736 54.209557 
-34.026207 -64.606300 53.549953 
-34.709881 -63.819462 52.805077 
-35.444832 -63.010067 52.019127 
-36.239948 -62.161808 51.241840 
-37.101608 -61.258930 50.528156 
-38.030674 -60.291435 49.936340 
-39.019009 -59.260860 49.522736 
-40.047916 -58.183575 49.332161 
-41.091366 -57.087719 49.386223 
-42.124218 -56.003273 49.676010 
-21.809214 -82.962555 45.946407 
-21.857685 -81.911552 46.506233 
-21.831802 -80.837753 46.993595 
-21.756081 -79.752342 47.411911 
-21.655640 -78.665451 47.770645 
-21.554783 -77.586784 48.083828 
-21.476107 -76.526375 48.368160 
-21.440022 -75.495102 48.641434 
-21.464617 -74.505119 48.921070 
-21.565544 -73.570061 49.222645 
-21.755716 -72.705139 49.558121 
-22.044367 -71.927055 49.933834 
-22.435230 -71.253281 50.348896 
-22.924051 -70.699989 50.795197 
-23.496738 -70.277824 51.260387 
-24.130497 -69.986565 51.733215 
-24.799099 -69.811646 52.208080 
-25.479815 -69.724991 52.685349 
-26.157825 -69.689178 53.168137 
-26.826633 -69.661865 53.658413 
-27.485765 -69.598755 54.153675 
-28.137337 -69.456345 54.643906 
-28.782368 -69.196472 55.107616 
-29.417538 -68.795418 55.508110 
-30.034624 -68.256142 55.795479 
-30.625679 -67.611160 55.921246 
-31.191010 -66.904663 55.857994 
-31.740774 -66.170929 55.603638 
-32.290173 -65.428986 55.172691 
-32.854885 -64.686218 54.588833 
-33.449211 -63.941837 53.881981 
-34.085979 -63.188686 53.087761 
-34.777042 -62.414318 52.247471 
-35.533287 -61.602638 51.408173 
-36.363487 -60.736774 50.622574 
-37.271469 -59.803608 49.947868 
-38.252087 -58.799801 49.441864 
-39.288052 -57.736835 49.154449 
-40.351395 -56.640915 49.115479 
-41.411240 -55.544815 49.324871 
-21.214323 -82.059364 47.439632 
-21.221159 -80.994781 47.947109 
-21.173075 -79.911331 48.382881 
-21.095243 -78.821487 48.757591 
-21.012253 -77.736542 49.086349 
-20.947123 -76.667213 49.386696 
-20.920780 -75.624352 49.676884 
-20.951782 -74.619331 49.974297 
-21.056141 -73.664497 50.294056 
-21.246990 -72.773262 50.647392 
-21.533819 -71.960014 51.039974 
-21.921118 -71.239372 51.470612 
-22.406696 -70.624680 51.931202 
-22.980276 -70.125328 52.409058 
-23.623716 -69.743340 52.891045 
-24.313808 -69.470093 53.368073 
-25.027292 -69.285095 53.837032 
-25.745682 -69.157394 54.299229 
-26.457644 -69.048660 54.756691 
-27.158426 -68.916664 55.208263 
-27.847094 -68.718727 55.645790 
-28.522409 -68.417336 56.049664 
-29.178574 -67.990105 56.384811 
-29.804283 -67.441910 56.603436 
-30.389544 -66.804550 56.661507 
-30.934971 -66.116859 56.536648 
-31.452612 -65.407272 56.228870 
-31.960182 -64.691330 55.751648 
-32.476070 -63.975124 55.125935 
-33.017113 -63.257988 54.378372 
-33.598297 -62.533627 53.541248 
-34.233212 -61.790779 52.652748 
-34.934380 -61.014248 51.756920 
-35.712696 -60.187016 50.903595 
-36.575268 -59.293793 50.147675 
-37.521355 -58.326393 49.546604 
-38.537796 -57.289841 49.153854 
-39.597660 -56.205482 49.007240 
-40.666271 -55.106174 49.116566 
-20.547318 -81.153061 48.792198 
-20.537907 -80.083214 49.258652 
-20.494579 -78.999413 49.662930 
-20.441786 -77.915222 50.020573 
-20.402807 -76.843124 50.349258 
-20.399065 -75.794853 50.666958 
-20.449661 -74.781914 50.990459 
-20.570995 -73.815910 51.334064 
-20.776318 -72.908783 51.708260 
-21.075043 -72.072624 52.118477 
-21.471766 -71.319130 52.564133 
-21.965212 -70.658371 53.038574 
-22.547529 -70.097153 53.530602 
-23.204380 -69.637054 54.027275 
-23.916445 -69.272293 54.517384 
-24.662403 -68.988167 54.993938 
-25.422657 -68.760696 55.454365 
-26.182266 -68.557861 55.898228 
-26.931849 -68.342148 56.323635 
-27.666025 -68.074417 56.722862 
-28.379684 -67.720184 57.077408 
-29.063614 -67.259750 57.354439 
-29.704025 -66.698288 57.510929 
-30.290133 -66.062927 57.509693 
-30.822994 -65.385712 57.333183 
-31.315693 -64.690346 56.982395 
-31.787491 -63.990242 56.469318 
-32.258633 -63.290924 55.812279 
-32.747791 -62.591976 55.034782 
-33.271461 -61.887978 54.165794 
-33.844292 -61.168892 53.240166 
-34.479603 -60.420879 52.298683 
-35.189419 -59.627731 51.387730 
-35.983292 -58.773529 50.558659 
-36.865246 -57.846748 49.866272 
-37.828880 -56.845932 49.364693 
-38.853077 -55.784897 49.098145 
-39.903774 -54.692635 49.087540 
-19.837181 -80.257576 50.015259 
-19.840513 -79.190804 50.462585 
-19.830839 -78.115677 50.862774 
-19.831154 -77.047134 51.233051 
-19.863085 -75.998871 51.590427 
-19.946159 -74.983505 51.950378 
-20.097147 -74.012802 52.325760 
-20.329422 -73.097755 52.725933 
-20.652256 -72.248619 53.156025 
-21.070116 -71.474403 53.616333 
-21.582129 -70.782028 54.102371 
-22.181898 -70.175369 54.605682 
-22.857857 -69.654175 55.115425 
-23.594185 -69.213028 55.620552 
-24.372475 -68.840302 56.111725 
-25.174025 -68.517418 56.582344 
-25.982170 -68.218910 57.027832 
-26.783691 -67.913765 57.443218 
-27.568357 -67.568718 57.819244 
-28.326302 -67.154327 58.137840 
-29.044685 -66.653893 58.369358 
-29.708014 -66.071129 58.477306 
-30.305159 -65.427330 58.431454 
-30.836956 -64.748619 58.217796 
-31.316433 -64.055489 57.837585 
-31.763428 -63.360138 57.301468 
-32.199322 -62.667797 56.625637 
-32.644020 -61.978191 55.830971 
-33.114948 -61.286381 54.943451 
-33.627159 -60.583221 53.994713 
-34.193901 -59.855991 53.022175 
-34.826988 -59.089626 52.068611 
-35.536602 -58.268658 51.181183 
-36.329708 -57.380222 50.410202 
-37.206627 -56.418308 49.806664 
-38.156013 -55.388935 49.416718 
-39.151699 -54.313538 49.270893 
-19.125452 -79.384216 51.137817 
-19.171442 -78.328384 51.593681 
-19.224224 -77.270798 52.018715 
-19.304939 -76.227875 52.428444 
-19.433111 -75.214394 52.836407 
-19.625660 -74.243248 53.253384 
-19.896013 -73.325424 53.687054 
-20.253345 -72.469986 54.141804 
-20.702042 -71.683891 54.618603 
-21.241497 -70.971405 55.115166 
-21.866341 -70.333687 55.626232 
-22.566980 -69.768288 56.144222 
-23.330387 -69.268806 56.660133 
-24.141022 -68.824532 57.164543 
-24.982048 -68.419983 57.648434 
-25.836706 -68.034775 58.103317 
-26.689411 -67.644241 58.520142 
-27.525900 -67.221840 58.886806 
-28.331879 -66.743958 59.184872 
-29.091253 -66.197037 59.387939 
-29.787121 -65.583328 59.465633 
-30.407650 -64.919312 59.393257 
-30.952471 -64.226784 59.159191 
-31.433371 -63.524155 58.764614 
-31.869747 -62.823071 58.219097 
-32.283371 -62.128685 57.537350 
-32.694862 -61.440804 56.738316 
-33.122223 -60.754608 55.845520 
-33.580566 -60.061344 54.887737 
-34.082592 -59.348888 53.899204 
-34.639126 -58.602970 52.919140 
-35.259438 -57.808723 51.990719 
-35.950882 -56.953030 51.159439 
-36.717415 -56.027527 50.471066 
-37.556431 -55.032505 49.968506 
-38.454433 -53.980923 49.685661 
-18.460373 -78.539230 52.201023 
-18.577721 -77.501976 52.692444 
-18.719749 -76.470680 53.166283 
-18.905132 -75.463005 53.633705 
-19.150393 -74.494011 54.102917 
-19.468763 -73.575752 54.579395 
-19.869339 -72.717148 55.066235 
-20.356573 -71.923981 55.564545 
-20.930250 -71.198784 56.073669 
-21.585909 -70.540619 56.591324 
-22.315517 -69.945038 57.113457 
-23.108223 -69.404167 57.634247 
-23.950943 -68.906876 58.146057 
-24.828943 -68.438881 58.639664 
-25.726374 -67.982796 59.104462 
-26.626846 -67.518723 59.528137 
-27.513617 -67.025932 59.895626 
-28.369202 -66.486343 60.187515 
-29.174950 -65.889679 60.379555 
-29.912561 -65.237785 60.445747 
-30.568949 -64.544106 60.365147 
-31.141611 -63.827606 60.127487 
-31.639935 -63.105549 59.733601 
-32.081699 -62.389610 59.192188 
-32.488102 -61.685223 58.516968 
-32.879879 -60.992329 57.725555 
-33.275249 -60.306129 56.839653 
-33.689270 -59.617859 55.885582 
-34.134068 -58.915531 54.894634 
-34.619347 -58.185131 53.902752 
-35.152969 -57.412090 52.949429 
-35.741207 -56.583290 52.075939 
-36.388630 -55.689285 51.323109 
-37.097088 -54.726971 50.728592 
-37.863411 -53.702621 50.323612 
-17.890514 -77.723015 53.248573 
-18.104660 -76.711662 53.795570 
-18.358223 -75.714569 54.332069 
-18.666410 -74.749695 54.863457 
-19.041739 -73.831261 55.392624 
-19.493063 -72.969315 55.920872 
-20.025030 -72.169807 56.448677 
-20.638014 -71.434677 56.976192 
-21.328518 -70.761971 57.503212 
-22.089907 -70.145844 58.028778 
-22.913099 -69.577057 58.550468 
-23.787086 -69.043427 59.063610 
-24.699127 -68.530502 59.560741 
-25.634832 -68.022079 60.031319 
-26.578194 -67.500961 60.461700 
-27.511633 -66.950417 60.834946 
-28.416035 -66.356689 61.130638 
-29.271158 -65.712555 61.325443 
-30.057499 -65.020424 61.395771 
-30.760386 -64.292305 61.322712 
-31.374588 -63.545643 61.096428 
-31.906116 -62.797314 60.716969 
-32.369877 -62.059563 60.192150 
-32.785297 -61.338543 59.534908 
-33.172321 -60.634613 58.762005 
-33.548885 -59.943058 57.893814 
-33.929844 -59.254944 56.954697 
-34.326855 -58.558125 55.973339 
-34.748775 -57.838459 54.982548 
-35.202225 -57.081383 54.018402 
-35.692154 -56.273743 53.118526 
-36.222397 -55.405582 52.319656 
-36.796032 -54.472080 51.654861 
-37.415195 -53.475300 51.150875 
-17.458286 -76.929665 54.316257 
-17.788733 -75.949997 54.927864 
-18.168571 -74.992027 55.528957 
-18.608768 -74.072929 56.119644 
-19.117519 -73.205208 56.699009 
-19.699593 -72.396492 57.266193 
-20.356031 -71.649734 57.821072 
-21.084391 -70.963295 58.364338 
-21.879333 -70.331108 58.897076 
-22.733345 -69.743088 59.419762 
-23.637180 -69.185974 59.930981 
-24.580002 -68.644356 60.426212 
-25.549122 -68.101738 60.896954 
-26.529743 -67.541763 61.330326 
-27.504751 -66.949684 61.709267 
-28.454859 -66.314392 62.013054 
-29.359350 -65.630920 62.218685 
-30.198034 -64.902588 62.303574 
-30.954773 -64.141006 62.249435 
-31.621471 -63.362968 62.045986 
-32.200161 -62.585598 61.692074 
-32.701805 -61.822105 61.194313 
-33.142757 -61.079834 60.564854 
-33.541000 -60.359924 59.819801 
-33.913376 -59.657986 58.978615 
-34.274139 -58.965019 58.064156 
-34.634487 -58.268600 57.102840 
-35.002701 -57.554359 56.124622 
-35.384571 -56.807583 55.162292 
-35.784065 -56.015049 54.250053 
-36.204178 -55.166683 53.421169 
-36.648010 -54.256935 52.705055 
-37.119831 -53.285614 52.124603 
-17.193415 -76.145729 55.425232 
-17.651064 -75.199600 56.099510 
-18.162529 -74.280281 56.757805 
-18.734631 -73.403694 57.396637 
-19.371836 -72.580666 58.013145 
-20.075686 -71.816856 58.605907 
-20.844692 -71.112701 59.175251 
-21.674694 -70.463425 59.722931 
-22.559507 -69.859291 60.251221 
-23.491465 -69.286491 60.761486 
-24.461517 -68.728409 61.252525 
-25.458918 -68.167343 61.719036 
-26.470652 -67.586205 62.150742 
-27.481031 -66.970306 62.532200 
-28.471752 -66.309380 62.843624 
-29.422670 -65.599503 63.062569 
-30.313663 -64.844543 63.166809 
-31.127630 -64.056038 63.137878 
-31.853928 -63.250664 62.964394 
-32.490562 -62.446011 62.643524 
-33.043869 -61.656570 62.180370 
-33.525997 -60.891151 61.586052 
-33.951694 -60.152130 60.876049 
-34.335632 -59.435776 60.069168 
-34.690720 -58.733280 59.187145 
-35.027378 -58.032108 58.254581 
-35.353329 -57.317696 57.298832 
-35.673885 -56.575260 56.349598 
-35.992489 -55.791653 55.437729 
-36.311737 -54.956974 54.593166 
-36.634789 -54.065559 53.842182 
-36.967068 -53.116272 53.204697 
-17.108616 -75.348732 56.581470 
-17.695089 -74.432106 57.309155 
-18.335064 -73.544815 58.012653 
-19.031942 -72.701973 58.686497 
-19.787207 -71.913567 59.327065 
-20.599934 -71.183929 59.933132 
-21.466808 -70.511482 60.505760 
-22.382669 -69.888527 61.047718 
-23.341125 -69.301918 61.562134 
-24.334839 -68.734375 62.050705 
-25.355162 -68.166626 62.511757 
-26.391390 -67.579704 62.938629 
-27.430054 -66.957359 63.318966 
-28.454746 -66.288292 63.635208 
-29.446772 -65.568108 63.866245 
-30.386827 -64.800339 63.990314 
-31.257538 -63.996170 63.988483 
-32.046375 -63.172127 63.847958 
-32.747734 -62.346359 63.563965 
-33.363216 -61.534611 63.139713 
-33.900059 -60.747372 62.585026 
-34.368656 -59.988567 61.914642 
-34.780308 -59.255524 61.146847 
-35.145554 -58.539982 60.302589 
-35.473305 -57.829597 59.405071 
-35.770412 -57.109875 58.479511 
-36.041718 -56.366199 57.552738 
-36.290504 -55.585766 56.652328 
-36.519520 -54.759171 55.804897 
-36.732590 -53.881145 55.033634 
-36.936493 -52.950329 54.355873 
-17.200287 -74.508255 57.779507 
-17.909771 -73.611404 58.548115 
-18.669266 -72.745071 59.283451 
-19.479311 -71.924629 59.978893 
-20.338795 -71.160019 60.630623 
-21.244659 -70.454765 61.237888 
-22.192263 -69.805229 61.802719 
-23.176092 -69.200699 62.328907 
-24.190262 -68.624512 62.820282 
-25.228283 -68.056297 63.278439 
-26.282175 -67.474823 63.700638 
-27.341394 -66.861015 64.078362 
-28.392279 -66.200882 64.397232 
-29.418358 -65.487778 64.638306 
-30.401789 -64.723557 64.780785 
-31.325592 -63.918270 64.805481 
-32.176109 -63.087910 64.698242 
-32.944878 -62.250854 64.452225 
-33.629169 -61.423981 64.068535 
-34.231136 -60.619438 63.555416 
-34.756130 -59.842903 62.926666 
-35.210995 -59.093140 62.200077 
-35.602753 -58.362846 61.396118 
-35.937786 -57.640255 60.537079 
-36.221340 -56.911293 59.646523 
-36.457443 -56.161858 58.748852 
-36.649292 -55.379871 57.868626 
-36.800247 -54.556835 57.029091 
-36.915489 -53.688263 56.250290 
-37.003868 -52.773041 55.547009 
-17.453125 -73.592148 59.005241 
-18.274696 -72.702469 59.800636 
-19.140539 -71.845367 60.553165 
-20.048435 -71.037430 61.255543 
-20.994770 -70.288902 61.904224 
-21.974785 -69.602150 62.499615 
-22.983318 -68.970848 63.045300 
-24.015514 -68.380722 63.546459 
-25.066807 -67.811584 64.007385 
-26.132029 -67.240471 64.428886 
-27.204071 -66.645157 64.806290 
-28.272768 -66.007774 65.128716 
-29.324669 -65.317795 65.379868 
-30.344055 -64.573776 65.540375 
-31.314905 -63.783344 65.591209 
-32.223129 -62.961102 65.517090 
-33.058243 -62.125137 65.309273 
-33.813969 -61.293018 64.966660 
-34.487755 -60.478413 64.495659 
-35.079704 -59.688782 63.908913 
-35.591511 -58.924622 63.223663 
-36.025635 -58.179974 62.460094 
-36.384769 -57.444057 61.640057 
-36.671543 -56.703621 60.786114 
-36.888474 -55.945450 59.920910 
-37.038391 -55.158649 59.066429 
-37.125469 -54.335995 58.242840 
-37.156799 -53.474174 57.467007 
-37.143997 -52.572620 56.751072 
-17.844133 -72.577316 60.235950 
-18.762573 -71.684181 61.041431 
-19.717272 -70.828758 61.793865 
-20.703382 -70.028946 62.486225 
-21.715385 -69.294525 63.116543 
-22.747919 -68.625404 63.687569 
-23.796593 -68.011475 64.205193 
-24.858189 -67.434471 64.675758 
-25.929932 -66.871033 65.103065 
-27.008089 -66.296555 65.485817 
-28.086424 -65.689201 65.816422 
-29.155273 -65.033623 66.081177 
-30.201828 -64.323547 66.262329 
-31.211689 -63.562695 66.341164 
-32.170967 -62.762985 66.301643 
-33.067963 -61.941288 66.133301 
-33.893776 -61.115265 65.832939 
-34.641949 -60.299614 65.404938 
-35.307705 -59.503536 64.860512 
-35.887367 -58.729359 64.216133 
-36.378090 -57.972778 63.491772 
-36.777824 -57.224377 62.709240 
-37.085430 -56.472080 61.890823 
-37.300930 -55.703960 61.058220 
-37.426167 -54.910629 60.231674 
-37.465958 -54.086540 59.428848 
-37.429550 -53.229828 58.663769 
-37.331768 -52.340694 57.945927 
-18.344042 -71.460098 61.442471 
-19.339712 -70.559563 62.238472 
-20.361513 -69.705673 62.971832 
-21.402910 -68.916283 63.637669 
-22.457909 -68.198769 64.237228 
-23.521992 -67.548981 64.776352 
-24.592474 -66.952438 65.262718 
-25.668072 -66.387207 65.702431 
-26.747677 -65.827812 66.097092 
-27.828732 -65.249397 66.442017 
-28.905748 -64.631920 66.725952 
-29.969656 -63.963634 66.932625 
-31.008566 -63.242924 67.043701 
-32.009575 -62.477623 67.042419 
-32.960556 -61.682148 66.916786 
-33.850952 -60.873283 66.661598 
-34.671455 -60.066200 66.279144 
-35.413284 -59.271381 65.778824 
-36.067757 -58.492962 65.175972 
-36.626465 -57.728481 64.490158 
-37.081821 -56.970142 63.743294 
-37.427788 -56.207344 62.957932 
-37.660732 -55.429661 62.155781 
-37.780560 -54.629482 61.356415 
-37.792149 -53.803173 60.576046 
-37.706684 -52.950562 59.826523 
-37.542259 -52.072884 59.114998 
-18.919178 -70.257553 62.598545 
-19.969360 -69.353401 63.365929 
-21.034878 -68.506866 64.064247 
-22.109116 -67.733376 64.692566 
-23.187025 -67.036140 65.255829 
-24.265701 -66.406364 65.762085 
-25.344246 -65.825592 66.218971 
-26.422977 -65.269379 66.630424 
-27.502039 -64.711433 66.994370 
-28.579731 -64.128082 67.301918 
-29.651119 -63.502300 67.538391 
-30.707754 -62.826492 67.685860 
-31.738724 -62.103191 67.726891 
-32.732395 -61.342995 67.648003 
-33.677525 -60.560673 67.442032 
-34.563141 -59.770969 67.109116 
-35.377716 -58.985168 66.656601 
-36.108585 -58.208908 66.098129 
-36.742203 -57.441551 65.452278 
-37.265152 -56.677090 64.740784 
-37.665604 -55.906513 63.986637 
-37.935013 -55.120998 63.212257 
-38.070061 -54.314724 62.437706 
-38.074631 -53.486076 61.679050 
-37.961124 -52.636761 60.947128 
-37.750515 -51.769302 60.247482 
-19.536036 -68.998032 63.691757 
-20.618116 -68.098373 64.416435 
-21.706146 -67.266373 65.070633 
-22.794678 -66.513237 65.657677 
-23.880178 -65.837471 66.185089 
-24.961275 -65.226105 66.661163 
-26.038450 -64.657852 67.091454 
-27.113163 -64.106995 67.476097 
-28.186398 -63.547810 67.808571 
-29.256948 -62.958954 68.075974 
-30.320215 -62.327087 68.261177 
